# .PCD v0.7 - Point Cloud Data file format
VERSION 0.7
FIELDS x y z
SIZE 4 4 4
TYPE F F F
COUNT 1 1 1
WIDTH 1595
HEIGHT 1
VIEWPOINT 0 0 0 1 0 0 0
POINTS 1595
DATA ascii
1.4604301 6.5476832 -0.44999999
1.4602709 6.4476829 -0.44999999
0.96074927 6.7484789 -0.44999999
0.96059 6.648479 -0.44999999
0.96043074 6.5484796 -0.44999999
1.4613857 7.1476822 -0.25
1.5612264 7.047523 -0.25
1.4612265 7.0476823 -0.25
1.3613858 7.1478415 -0.25
1.3612266 7.0478415 -0.25
1.3610673 6.9478416 -0.25
1.2610675 6.9480009 -0.25
1.360908 6.8478417 -0.25
1.2609082 6.848001 -0.25
1.5613856 7.1475229 -0.15000001
1.4613857 7.1476822 -0.15000001
1.5612264 7.047523 -0.15000001
1.4612265 7.0476823 -0.15000001
1.5613856 7.1475229 -0.050000001
1.4613857 7.1476822 -0.050000001
1.5612264 7.047523 -0.050000001
1.4612265 7.0476823 -0.050000001
1.3613858 7.1478415 -0.15000001
1.261386 7.1480007 -0.15000001
1.3612266 7.0478415 -0.15000001
1.2612268 7.0480008 -0.15000001
1.3613858 7.1478415 -0.050000001
1.261386 7.1480007 -0.050000001
1.3612266 7.0478415 -0.050000001
1.2612268 7.0480008 -0.050000001
1.5610671 6.9475231 -0.15000001
1.4610672 6.9476824 -0.15000001
1.5609078 6.8475232 -0.15000001
1.5610671 6.9475231 -0.050000001
1.4610672 6.9476824 -0.050000001
1.5609078 6.8475232 -0.050000001
1.4609079 6.8476825 -0.050000001
1.3610673 6.9478416 -0.15000001
1.2610675 6.9480009 -0.15000001
1.360908 6.8478417 -0.15000001
1.2609082 6.848001 -0.15000001
1.3610673 6.9478416 -0.050000001
1.2610675 6.9480009 -0.050000001
1.360908 6.8478417 -0.050000001
1.2609082 6.848001 -0.050000001
1.0613862 7.1483192 -0.34999999
1.061227 7.0483193 -0.25
0.86122721 7.0486379 -0.34999999
0.96138632 7.1484785 -0.25
0.86138648 7.1486378 -0.25
0.96122706 7.0484786 -0.25
1.0609084 6.8483195 -0.34999999
1.1610676 6.9481602 -0.25
1.0610677 6.9483194 -0.25
0.96090853 6.8484788 -0.34999999
0.86090869 6.8486381 -0.34999999
0.9610678 6.9484787 -0.25
0.96090853 6.8484788 -0.25
1.1613861 7.14816 -0.15000001
1.0613862 7.1483192 -0.15000001
1.1612269 7.0481601 -0.15000001
1.061227 7.0483193 -0.15000001
1.1613861 7.14816 -0.050000001
1.0613862 7.1483192 -0.050000001
1.1612269 7.0481601 -0.050000001
1.061227 7.0483193 -0.050000001
0.96138632 7.1484785 -0.15000001
0.96122706 7.0484786 -0.15000001
0.96138632 7.1484785 -0.050000001
0.86138648 7.1486378 -0.050000001
0.96122706 7.0484786 -0.050000001
0.86122721 7.0486379 -0.050000001
1.1610676 6.9481602 -0.15000001
1.0610677 6.9483194 -0.15000001
1.1609083 6.8481603 -0.15000001
1.0609084 6.8483195 -0.15000001
1.1610676 6.9481602 -0.050000001
1.0610677 6.9483194 -0.050000001
1.1609083 6.8481603 -0.050000001
1.0609084 6.8483195 -0.050000001
0.9610678 6.9484787 -0.15000001
0.9610678 6.9484787 -0.050000001
0.86106795 6.948638 -0.050000001
0.96090853 6.8484788 -0.050000001
1.4605894 6.6476827 -0.25
1.3605895 6.6478419 -0.34999999
1.3607488 6.7478418 -0.25
1.260749 6.7480011 -0.25
1.3605895 6.6478419 -0.25
1.2605897 6.6480012 -0.25
1.56043 6.547524 -0.34999999
1.4604301 6.5476832 -0.34999999
1.5602708 6.4475236 -0.34999999
1.4602709 6.4476829 -0.34999999
1.4604301 6.5476832 -0.25
1.5602708 6.4475236 -0.25
1.4602709 6.4476829 -0.25
1.3604302 6.5478425 -0.34999999
1.2604305 6.5480018 -0.34999999
1.360271 6.4478421 -0.34999999
1.2602712 6.4480014 -0.34999999
1.3604302 6.5478425 -0.25
1.2604305 6.5480018 -0.25
1.360271 6.4478421 -0.25
1.2602712 6.4480014 -0.25
1.4607487 6.7476826 -0.15000001
1.5605893 6.6475234 -0.15000001
1.4605894 6.6476827 -0.15000001
1.5607486 6.7475233 -0.050000001
1.4607487 6.7476826 -0.050000001
1.5605893 6.6475234 -0.050000001
1.4605894 6.6476827 -0.050000001
1.3607488 6.7478418 -0.15000001
1.260749 6.7480011 -0.15000001
1.3605895 6.6478419 -0.15000001
1.2605897 6.6480012 -0.15000001
1.3607488 6.7478418 -0.050000001
1.260749 6.7480011 -0.050000001
1.3605895 6.6478419 -0.050000001
1.2605897 6.6480012 -0.050000001
1.56043 6.547524 -0.15000001
1.4604301 6.5476832 -0.15000001
1.5602708 6.4475236 -0.15000001
1.4602709 6.4476829 -0.15000001
1.56043 6.547524 -0.050000001
1.4604301 6.5476832 -0.050000001
1.5602708 6.4475236 -0.050000001
1.4602709 6.4476829 -0.050000001
1.3604302 6.5478425 -0.15000001
1.2604305 6.5480018 -0.15000001
1.360271 6.4478421 -0.15000001
1.2602712 6.4480014 -0.15000001
1.3604302 6.5478425 -0.050000001
1.2604305 6.5480018 -0.050000001
1.360271 6.4478421 -0.050000001
1.2602712 6.4480014 -0.050000001
1.0605899 6.6483197 -0.34999999
1.1607491 6.7481604 -0.25
1.1605898 6.6481605 -0.25
1.0605899 6.6483197 -0.25
0.96074927 6.7484789 -0.34999999
0.86074942 6.7486382 -0.34999999
0.96059 6.648479 -0.34999999
0.86059016 6.6486382 -0.34999999
0.96074927 6.7484789 -0.25
0.86074942 6.7486382 -0.25
0.96059 6.648479 -0.25
0.86059016 6.6486382 -0.25
1.1602713 6.4481606 -0.34999999
1.1604306 6.548161 -0.25
1.0604306 6.5483203 -0.25
1.0602714 6.4483199 -0.25
0.96043074 6.5484796 -0.34999999
0.96027148 6.4484792 -0.34999999
0.96043074 6.5484796 -0.25
1.1607491 6.7481604 -0.15000001
1.0607492 6.7483196 -0.15000001
1.1605898 6.6481605 -0.15000001
1.0605899 6.6483197 -0.15000001
1.1607491 6.7481604 -0.050000001
1.0607492 6.7483196 -0.050000001
1.1605898 6.6481605 -0.050000001
1.0605899 6.6483197 -0.050000001
0.96074927 6.7484789 -0.15000001
0.96074927 6.7484789 -0.050000001
0.86074942 6.7486382 -0.050000001
0.96059 6.648479 -0.050000001
0.86059016 6.6486382 -0.050000001
1.1604306 6.548161 -0.15000001
1.0604306 6.5483203 -0.15000001
1.1602713 6.4481606 -0.15000001
1.0602714 6.4483199 -0.15000001
1.1604306 6.548161 -0.050000001
1.0604306 6.5483203 -0.050000001
1.1602713 6.4481606 -0.050000001
1.0602714 6.4483199 -0.050000001
0.96027148 6.4484792 -0.15000001
0.96043074 6.5484796 -0.050000001
0.96027148 6.4484792 -0.050000001
0.76138657 7.148797 -0.15000001
0.66122741 7.0489564 -0.15000001
0.76138657 7.148797 -0.050000001
0.66138667 7.1489563 -0.050000001
0.76122731 7.0487971 -0.050000001
0.66122741 7.0489564 -0.050000001
0.56122756 7.0491157 -0.15000001
0.56138682 7.1491156 -0.050000001
0.56122756 7.0491157 -0.050000001
0.76106805 6.9487972 -0.15000001
0.66106814 6.9489565 -0.15000001
0.76106805 6.9487972 -0.050000001
0.66106814 6.9489565 -0.050000001
0.76090878 6.8487973 -0.050000001
0.66090888 6.8489566 -0.050000001
0.5610683 6.9491158 -0.050000001
0.56090903 6.8491158 -0.050000001
0.36090925 6.8494344 -0.25
0.76074952 6.7487974 -0.050000001
0.66074961 6.7489567 -0.050000001
0.76059026 6.6487975 -0.050000001
0.66059035 6.6489568 -0.050000001
3.5589941 5.6443396 -2.1500001
3.5588348 5.5443397 -2.1500001
3.4588351 5.5444989 -2.1500001
3.4586759 5.4444985 -2.05
3.3585165 5.3446584 -2.05
3.2585168 5.3448176 -2.05
3.3583572 5.2446585 -2.05
3.2583575 5.2448177 -1.95
3.2581983 5.1448178 -1.95
3.9578788 4.9437032 -0.64999998
3.9577196 4.8437033 -0.64999998
3.8577197 4.8438625 -0.64999998
3.8575604 4.7438626 -0.64999998
3.8574011 4.6438627 -0.64999998
3.7574012 4.644022 -0.64999998
3.757242 4.5440226 -0.64999998
3.6572423 4.5441818 -0.64999998
3.657083 4.4441814 -0.64999998
3.657083 4.4441814 -0.55000001
3.5570829 4.4443407 -0.64999998
3.5570829 4.4443407 -0.55000001
3.6569238 4.3441815 -0.55000001
3.5569236 4.3443408 -0.64999998
3.456924 4.3445001 -0.64999998
3.4567647 4.2445002 -0.64999998
3.5569236 4.3443408 -0.55000001
3.2562871 3.9448192 -0.64999998
3.0580392 5.0451365 -2.05
3.1581984 5.1449771 -1.95
3.1580391 5.0449772 -1.95
3.0580392 5.0451365 -1.95
3.1578798 4.9449773 -1.95
3.0578799 4.9451365 -1.95
3.0577207 4.8451366 -1.95
3.0578799 4.9451365 -1.85
3.0577207 4.8451366 -1.85
2.9577208 4.8452959 -1.95
2.9577208 4.8452959 -1.85
2.9575615 4.745296 -1.85
2.9574022 4.6452961 -1.85
2.8574023 4.6454554 -1.85
2.7570839 4.4456148 -1.75
3.0558095 3.6451383 -1.75
2.9558096 3.6452975 -1.75
2.9558096 3.6452975 -1.65
1.8562888 3.9470489 -1.65
1.7562889 3.9472082 -1.65
0.35724616 4.5494375 -2.55
0.3570869 4.4494371 -2.55
0.3570869 4.4494371 -2.45
0.3569276 4.3494372 -2.55
0.3569276 4.3494372 -2.45
0.35676834 4.2494373 -2.45
1.2562896 3.9480045 -2.6500001
1.2559711 3.7480047 -2.55
0.3569276 4.3494372 -2.3499999
0.35676834 4.2494373 -2.3499999
0.35660908 4.1494379 -2.3499999
0.35660908 4.1494379 -2.25
0.35644981 4.049438 -2.25
0.35629055 3.9494379 -2.25
1.6599522 6.2473645 -0.34999999
1.6599522 6.2473645 -0.25
1.6597929 6.1473651 -0.34999999
1.6596336 6.0473652 -0.34999999
1.6597929 6.1473651 -0.25
1.8601111 6.3470459 -0.050000001
1.8599519 6.247046 -0.050000001
1.7601112 6.3472052 -0.15000001
1.6601114 6.3473644 -0.15000001
1.7599519 6.2472053 -0.15000001
1.6599522 6.2473645 -0.15000001
1.7601112 6.3472052 -0.050000001
1.6601114 6.3473644 -0.050000001
1.7599519 6.2472053 -0.050000001
1.6599522 6.2473645 -0.050000001
1.8597926 6.1470466 -0.050000001
1.8596333 6.0470467 -0.050000001
1.7597927 6.1472058 -0.15000001
1.6597929 6.1473651 -0.15000001
1.7596334 6.0472059 -0.15000001
1.7597927 6.1472058 -0.050000001
1.6597929 6.1473651 -0.050000001
1.7596334 6.0472059 -0.050000001
1.6596336 6.0473652 -0.050000001
1.7594742 5.9472055 -0.34999999
1.7593149 5.8472056 -0.34999999
1.6594744 5.9473648 -0.25
1.6593151 5.8473649 -0.25
1.7591556 5.7472062 -0.25
1.6591558 5.7473655 -0.25
1.7589964 5.6472063 -0.25
1.6589966 5.6473656 -0.25
1.8594741 5.9470463 -0.050000001
1.8593148 5.8470464 -0.050000001
1.7594742 5.9472055 -0.15000001
1.7593149 5.8472056 -0.15000001
1.6593151 5.8473649 -0.15000001
1.7594742 5.9472055 -0.050000001
1.6594744 5.9473648 -0.050000001
1.7593149 5.8472056 -0.050000001
1.6593151 5.8473649 -0.050000001
1.8591555 5.7470469 -0.050000001
1.8589963 5.647047 -0.050000001
1.6591558 5.7473655 -0.15000001
1.6589966 5.6473656 -0.15000001
1.7591556 5.7472062 -0.050000001
1.6591558 5.7473655 -0.050000001
1.7589964 5.6472063 -0.050000001
1.6589966 5.6473656 -0.050000001
1.858837 5.5470471 -0.15000001
1.8586777 5.4470468 -0.15000001
1.858837 5.5470471 -0.050000001
1.8586777 5.4470468 -0.050000001
1.7588371 5.5472064 -0.15000001
1.6588373 5.5473657 -0.15000001
1.6586781 5.4473653 -0.15000001
1.7588371 5.5472064 -0.050000001
1.6588373 5.5473657 -0.050000001
1.6586781 5.4473653 -0.050000001
1.8585185 5.3470473 -0.050000001
1.8583592 5.2470474 -0.050000001
1.9581999 5.1468883 -0.050000001
1.8582 5.1470475 -0.050000001
1.9580406 5.0468884 -0.050000001
1.8580407 5.0470476 -0.050000001
1.9578813 4.9468884 -0.050000001
1.8578814 4.9470477 -0.050000001
1.9577221 4.8468885 -0.050000001
1.8577222 4.8470478 -0.050000001
1.4601116 6.347683 -0.34999999
1.5599523 6.2475238 -0.34999999
1.4599524 6.247683 -0.34999999
1.5601115 6.3475237 -0.25
1.4601116 6.347683 -0.25
1.5599523 6.2475238 -0.25
1.4599524 6.247683 -0.25
1.3601117 6.3478422 -0.34999999
1.3599524 6.2478423 -0.34999999
1.3601117 6.3478422 -0.25
1.2601119 6.3480015 -0.25
1.3599524 6.2478423 -0.25
1.2599527 6.2480016 -0.25
1.559793 6.1475244 -0.25
1.4597931 6.1476836 -0.25
1.5596337 6.0475245 -0.25
1.4596338 6.0476837 -0.25
1.3597932 6.1478429 -0.34999999
1.3597932 6.1478429 -0.25
1.3596339 6.047843 -0.25
1.2596341 6.0480022 -0.25
1.5601115 6.3475237 -0.050000001
1.4601116 6.347683 -0.050000001
1.5599523 6.2475238 -0.050000001
1.4599524 6.247683 -0.050000001
1.2601119 6.3480015 -0.15000001
1.3599524 6.2478423 -0.15000001
1.2599527 6.2480016 -0.15000001
1.3601117 6.3478422 -0.050000001
1.2601119 6.3480015 -0.050000001
1.3599524 6.2478423 -0.050000001
1.2599527 6.2480016 -0.050000001
1.559793 6.1475244 -0.15000001
1.5596337 6.0475245 -0.15000001
1.559793 6.1475244 -0.050000001
1.4597931 6.1476836 -0.050000001
1.5596337 6.0475245 -0.050000001
1.4596338 6.0476837 -0.050000001
1.2597934 6.1480021 -0.15000001
1.3597932 6.1478429 -0.050000001
1.2597934 6.1480021 -0.050000001
1.3596339 6.047843 -0.050000001
1.2596341 6.0480022 -0.050000001
1.0601121 6.34832 -0.34999999
1.160112 6.3481607 -0.25
1.0601121 6.34832 -0.25
1.0599529 6.2483201 -0.25
0.96011221 6.3484793 -0.34999999
0.95995295 6.2484794 -0.34999999
1.1597935 6.1481614 -0.25
1.0596343 6.0483208 -0.25
1.160112 6.3481607 -0.15000001
1.1599528 6.2481608 -0.15000001
1.160112 6.3481607 -0.050000001
1.0601121 6.34832 -0.050000001
1.1599528 6.2481608 -0.050000001
1.0599529 6.2483201 -0.050000001
0.96011221 6.3484793 -0.15000001
0.95995295 6.2484794 -0.050000001
1.0597936 6.1483207 -0.050000001
1.5594745 5.9475241 -0.25
1.4594746 5.9476833 -0.25
1.5593152 5.8475242 -0.25
1.3594747 5.9478426 -0.25
1.2594749 5.9480019 -0.25
1.3593154 5.8478427 -0.25
1.4589968 5.6476841 -0.34999999
1.5591559 5.7475247 -0.25
1.459156 5.747684 -0.25
1.5589967 5.6475248 -0.25
1.5594745 5.9475241 -0.15000001
1.5593152 5.8475242 -0.15000001
1.4593153 5.8476834 -0.15000001
1.5594745 5.9475241 -0.050000001
1.4594746 5.9476833 -0.050000001
1.5593152 5.8475242 -0.050000001
1.4593153 5.8476834 -0.050000001
1.3594747 5.9478426 -0.050000001
1.2594749 5.9480019 -0.050000001
1.3593154 5.8478427 -0.050000001
1.2593156 5.848002 -0.050000001
1.5591559 5.7475247 -0.15000001
1.459156 5.747684 -0.15000001
1.5589967 5.6475248 -0.15000001
1.5591559 5.7475247 -0.050000001
1.5589967 5.6475248 -0.050000001
1.3591561 5.7478433 -0.050000001
1.159475 5.9481611 -0.25
1.5586782 5.4475245 -0.25
1.5585189 5.3475251 -0.25
1.5583596 5.2475252 -0.25
1.5588374 5.5475249 -0.15000001
1.5582004 5.1475253 -0.25
1.4580412 5.0476847 -0.25
1.4578819 4.9476848 -0.25
1.4577227 4.8476849 -0.25
2.8554912 3.445457 -1.15
2.9574022 4.6452961 -0.44999999
3.0575614 4.7451367 -0.34999999
2.9575615 4.745296 -0.34999999
2.8570838 4.4454556 -0.34999999
2.7570839 4.4456148 -0.34999999
2.7569246 4.3456149 -0.34999999
2.5567656 4.2459335 -0.34999999
2.4567659 4.2460928 -0.25
2.5566063 4.1459341 -0.34999999
2.4566066 4.1460934 -0.34999999
2.4564474 4.0460935 -0.34999999
2.4564474 4.0460935 -0.25
1.9575628 4.7468886 -0.050000001
1.8575629 4.7470479 -0.050000001
1.9574035 4.6468887 -0.050000001
1.9572443 4.5468893 -0.050000001
1.957085 4.4468889 -0.050000001
2.3566065 4.1462526 -0.34999999
2.3564472 4.0462527 -0.34999999
2.2564476 4.046412 -0.34999999
2.3564472 4.0462527 -0.25
2.2564476 4.046412 -0.25
2.1564476 4.0465713 -0.25
2.2569253 4.3464112 -0.050000001
2.1569254 4.3465705 -0.050000001
2.0569255 4.3467298 -0.050000001
2.1567662 4.2465706 -0.050000001
2.0567663 4.2467299 -0.050000001
2.1566069 4.1465712 -0.050000001
2.056607 4.1467304 -0.050000001
2.0564477 4.0467305 -0.050000001
1.9569257 4.346889 -0.050000001
1.8569258 4.3470483 -0.050000001
1.9567665 4.2468891 -0.050000001
1.9566072 4.1468897 -0.050000001
2.4562881 3.9460933 -0.25
2.356288 3.9462526 -0.34999999
2.3561287 3.8462527 -0.34999999
2.256129 3.8464119 -0.34999999
2.2562883 3.9464118 -0.25
2.3561287 3.8462527 -0.25
2.1562884 3.9465711 -0.34999999
2.0561292 3.8467305 -0.34999999
2.1562884 3.9465711 -0.25
2.0562885 3.9467304 -0.25
2.0561292 3.8467305 -0.25
2.2559698 3.746412 -0.34999999
2.3558102 3.6462531 -0.34999999
2.1559699 3.7465713 -0.34999999
2.05597 3.7467306 -0.34999999
2.0558107 3.6467309 -0.34999999
2.0558107 3.6467309 -0.25
2.0562885 3.9467304 -0.050000001
2.0561292 3.8467305 -0.050000001
2.0558107 3.6467309 -0.15000001
2.05597 3.7467306 -0.050000001
2.0558107 3.6467309 -0.050000001
1.9558109 3.6468902 -0.34999999
1.855811 3.6470494 -0.34999999
1.9559702 3.7468898 -0.25
1.8559703 3.7470491 -0.25
1.9558109 3.6468902 -0.25
1.855811 3.6470494 -0.25
1.8561295 3.847049 -0.15000001
1.9562887 3.9468896 -0.050000001
1.9559702 3.7468898 -0.15000001
1.8559703 3.7470491 -0.15000001
1.9558109 3.6468902 -0.15000001
1.855811 3.6470494 -0.15000001
2.255492 3.4464126 -0.25
2.0556514 3.5467308 -0.34999999
2.1554921 3.4465718 -0.25
2.0554922 3.4467311 -0.25
2.2553327 3.3464124 -0.34999999
2.2551734 3.2464128 -0.34999999
2.1551735 3.246572 -0.34999999
2.0553329 3.3467309 -0.25
2.0551736 3.2467313 -0.25
2.0556514 3.5467308 -0.15000001
2.0554922 3.4467311 -0.15000001
2.0556514 3.5467308 -0.050000001
2.0554922 3.4467311 -0.050000001
2.2553327 3.3464124 -0.050000001
2.0553329 3.3467309 -0.15000001
2.1553328 3.3465717 -0.050000001
2.0553329 3.3467309 -0.050000001
2.1551735 3.246572 -0.050000001
2.0551736 3.2467313 -0.050000001
1.8556517 3.5470493 -0.34999999
1.9556516 3.54689 -0.25
1.8556517 3.5470493 -0.25
1.9554923 3.4468904 -0.25
1.8554924 3.4470496 -0.25
1.7556518 3.5472085 -0.25
1.7554924 3.4472089 -0.25
1.955333 3.3468902 -0.34999999
1.8551738 3.2470498 -0.25
1.7553332 3.3472087 -0.25
1.7551739 3.2472091 -0.25
1.8556517 3.5470493 -0.15000001
1.8554924 3.4470496 -0.15000001
1.9556516 3.54689 -0.050000001
1.9554923 3.4468904 -0.050000001
1.7556518 3.5472085 -0.15000001
1.7554924 3.4472089 -0.15000001
1.8553331 3.3470495 -0.15000001
1.9551737 3.2468905 -0.15000001
1.955333 3.3468902 -0.050000001
1.9551737 3.2468905 -0.050000001
1.7553332 3.3472087 -0.15000001
1.7551739 3.2472091 -0.15000001
1.6551741 3.2473683 -0.15000001
0.055653859 3.549916 -1.35
0.15549448 3.4497571 -1.35
0.055335328 3.3499162 -1.35
0.055176064 3.2499166 -1.25
1.4575634 4.747685 -0.25
1.557404 4.6475258 -0.25
1.4574041 4.6476851 -0.25
1.4572449 4.5476856 -0.25
1.5575633 4.7475257 -0.15000001
2.5548544 3.0459352 -1.15
2.455014 3.1460943 -1.05
1.9538996 2.4468915 -1.25
1.9537404 2.3468914 -1.25
2.3532619 2.0462549 -1.15
1.653263 2.0473697 -1.15
1.7532628 2.0472105 -1.05
1.8529441 1.8470514 -1.05
2.4548547 3.0460944 -0.050000001
2.5546951 2.9459352 -0.050000001
2.4546955 2.9460945 -0.050000001
2.4545362 2.8460946 -0.050000001
2.5543766 2.7459354 -0.050000001
2.5542173 2.6459358 -0.050000001
2.653899 2.4457767 -0.050000001
2.5538988 2.445936 -0.050000001
2.1540587 2.5465727 -0.75
2.0538995 2.4467323 -0.75
2.1550143 3.1465721 -0.34999999
2.0548551 3.0467315 -0.34999999
2.1550143 3.1465721 -0.25
2.0550144 3.1467314 -0.25
2.3548546 3.0462537 -0.050000001
2.1550143 3.1465721 -0.050000001
2.0550144 3.1467314 -0.050000001
2.154855 3.0465722 -0.050000001
2.0548551 3.0467315 -0.050000001
2.3546953 2.9462538 -0.050000001
2.3545361 2.8462539 -0.050000001
2.2545364 2.8464131 -0.050000001
2.1546957 2.9465723 -0.050000001
2.0546958 2.9467316 -0.050000001
2.1545365 2.8465724 -0.050000001
2.0545366 2.8467317 -0.050000001
1.9548552 3.0468907 -0.34999999
1.9550145 3.1468906 -0.25
1.8548553 3.04705 -0.25
1.7550147 3.1472092 -0.25
1.7548554 3.0472093 -0.25
1.9546959 2.9468908 -0.34999999
1.9550145 3.1468906 -0.15000001
1.9550145 3.1468906 -0.050000001
1.7550147 3.1472092 -0.15000001
1.6550149 3.1473684 -0.15000001
1.6548556 3.0473685 -0.15000001
1.6546963 2.9473686 -0.15000001
2.1543772 2.7465725 -0.050000001
2.0537403 2.3467321 -0.75
1.8532627 2.0470512 -0.75
1.8526256 1.6470517 -0.75
1.6531037 1.9473698 -0.44999999
1.6529444 1.8473699 -0.44999999
1.555015 3.1475277 -1.35
1.2543783 2.7480059 -1.35
0.055016797 3.1499166 -1.35
0.055016797 3.1499166 -1.25
0.65406048 2.5489616 -1.25
0.65390122 2.448962 -1.25
0.15485741 3.0497575 -1.15
0.65390122 2.448962 -1.15
0.95294529 1.8484848 -1.25
0.95278597 1.7484848 -1.25
1.0532637 2.0483253 -0.94999999
0.95326382 2.0484846 -0.94999999
1.5531038 1.9475291 -0.94999999
1.5529445 1.8475292 -0.94999999
1.5529445 1.8475292 -0.85000002
1.0531044 1.9483254 -0.94999999
0.95310456 1.9484847 -0.94999999
0.65374196 2.3489618 -1.15
0.65358269 2.2489622 -1.15
0.65358269 2.2489622 -1.05
0.05358341 2.2499177 -0.85000002
0.6531049 1.9489625 -1.05
0.6531049 1.9489625 -0.94999999
0.65294564 1.8489625 -0.94999999
0.55310506 1.9491217 -0.94999999
0.55294579 1.8491218 -0.94999999
0.55294579 1.8491218 -0.85000002
1.3546966 2.9478464 -0.64999998
1.3545374 2.8478465 -0.64999998
1.2543783 2.7480059 -0.64999998
1.2542191 2.6480062 -0.64999998
1.3540596 2.5478468 -0.75
1.3539003 2.4478471 -0.64999998
1.2543783 2.7480059 -0.55000001
1.2542191 2.6480062 -0.55000001
1.2540598 2.5480061 -0.55000001
1.1540599 2.5481653 -0.55000001
1.253582 2.2480066 -0.55000001
1.2534227 2.1480067 -0.55000001
1.2532635 2.0480068 -0.55000001
1.2532635 2.0480068 -0.44999999
1.5529445 1.8475292 -0.44999999
1.2531042 1.9480069 -0.44999999
1.5527853 1.7475293 -0.44999999
1.3527855 1.7478478 -0.55000001
1.2532635 2.0480068 -0.34999999
1.4534224 2.1476882 -0.15000001
1.2531042 1.9480069 -0.34999999
1.5527853 1.7475293 -0.34999999
0.05358341 2.2499177 -0.75
0.053105615 1.949918 -0.75
1.7524664 1.5472111 -1.05
1.3523077 1.4478482 -0.85000002
1.4519891 1.2476892 -0.85000002
1.2519894 1.2480078 -0.75
0.85198981 1.2486448 -0.75
1.0518303 1.1483264 -0.64999998
0.85183054 1.1486449 -0.64999998
0.85167128 1.048645 -0.64999998
1.051671 1.0483265 -0.44999999
1.0515118 0.94832659 -0.44999999
1.3519892 1.2478485 -0.34999999
1.5521482 1.3475298 -0.050000001
1.551989 1.24753 -0.050000001
1.4519891 1.2476892 -0.050000001
1.2519894 1.2480078 -0.050000001
1.3518299 1.1478486 -0.34999999
1.2518301 1.1480079 -0.34999999
1.4518298 1.1476893 -0.050000001
1.4516705 1.0476894 -0.050000001
1.2518301 1.1480079 -0.050000001
1.3516706 1.0478487 -0.050000001
1.2516708 1.048008 -0.050000001
1.3515114 0.9478488 -0.050000001
1.2515116 0.94800806 -0.050000001
1.2513523 0.84800822 -0.050000001
0.95167112 1.0484858 -0.34999999
1.1515117 0.94816732 -0.34999999
1.0513525 0.84832674 -0.34999999
1.1518302 1.1481671 -0.050000001
1.1516709 1.0481672 -0.050000001
1.051671 1.0483265 -0.050000001
0.95167112 1.0484858 -0.050000001
1.0515118 0.94832659 -0.050000001
1.1513524 0.84816748 -0.050000001
1.0513525 0.84832674 -0.050000001
0.95151186 0.94848585 -0.050000001
0.9513526 0.84848601 -0.050000001
0.85135275 0.84864527 -0.050000001
0.65230852 1.448963 -0.55000001
0.65230852 1.448963 -0.44999999
0.55230868 1.4491223 -0.44999999
0.7519899 1.2488041 -0.44999999
0.55214942 1.3491224 -0.44999999
0.052468553 1.5499185 -0.44999999
0.051990759 1.2499189 -0.55000001
0.75167137 1.0488043 -0.55000001
0.55151236 0.94912291 -0.55000001
0.25183126 1.1496005 -0.44999999
0.051353697 0.84991938 -0.55000001
0.65183073 1.1489635 -0.050000001
0.75151211 0.94880438 -0.050000001
0.45135319 0.84928232 -0.050000001
0.15167211 1.0497599 -0.25
0.85103422 0.64864546 -0.44999999
1.1511931 0.74816757 -0.050000001
1.0511932 0.74832684 -0.050000001
1.051034 0.64832693 -0.050000001
0.95119333 0.7484861 -0.050000001
0.95103407 0.6484862 -0.050000001
0.85103422 0.64864546 -0.050000001
1.0508747 0.54832709 -0.050000001
0.95087481 0.54848635 -0.050000001
0.85087496 0.54864562 -0.050000001
0.8507157 0.44864571 -0.050000001
0.85055643 0.34864584 -0.050000001
0.051194429 0.74991947 -0.44999999
0.55103457 0.64912325 -0.25
0.65071589 0.44896424 -0.25
0.75119358 0.74880463 -0.050000001
0.45119393 0.74928242 -0.050000001
0.45103467 0.64928252 -0.050000001
0.65071589 0.44896424 -0.15000001
0.75071579 0.44880497 -0.050000001
0.65071589 0.44896424 -0.050000001
0.55071604 0.4491235 -0.050000001
0.45071614 0.44928277 -0.050000001
0.35087553 0.54944193 -0.25
0.15087579 0.54976046 -0.25
0.35119405 0.74944168 -0.15000001
0.25103492 0.64960104 -0.15000001
0.25119418 0.74960095 -0.050000001
0.35103479 0.64944178 -0.050000001
0.25087565 0.5496012 -0.15000001
0.35087553 0.54944193 -0.050000001
0.25087565 0.5496012 -0.050000001
0.35071626 0.44944203 -0.050000001
0.25071639 0.44960129 -0.050000001
0.65055662 0.34896436 -0.15000001
0.75039726 0.24880521 -0.15000001
0.65039736 0.24896447 -0.15000001
0.75055653 0.3488051 -0.050000001
0.65055662 0.34896436 -0.050000001
0.75039726 0.24880521 -0.050000001
0.65039736 0.24896447 -0.050000001
0.55039752 0.24912374 -0.15000001
0.45055687 0.34928289 -0.050000001
0.55039752 0.24912374 -0.050000001
0.45039761 0.249283 -0.050000001
0.6502381 0.1489646 -0.050000001
0.350557 0.34944215 -0.15000001
0.25055712 0.34960142 -0.050000001
0.35039774 0.24944228 -0.050000001
0.25039786 0.24960154 -0.050000001
0.050557371 0.34991995 -0.15000001
0.15055725 0.34976068 -0.050000001
0.050557371 0.34991995 -0.050000001
0.15039799 0.24976081 -0.050000001
-4.5374928 7.8572369 -3.55
-4.4376516 7.7570782 -3.45
-4.3381295 7.4569187 -3.45
-4.3379703 7.5569191 -3.3499999
-4.2382889 7.35676 -3.3499999
-4.0386081 7.1564417 -3.25
-4.0387673 7.0564418 -3.25
-5.8378091 7.659308 -3.3499999
-6.0378094 7.6596265 -3.25
-0.53255981 10.950863 -0.55000001
-0.43271917 10.850704 -0.55000001
-0.43287843 10.750705 -0.55000001
-0.63303745 10.651023 -0.55000001
-2.6338315 10.154208 -0.85000002
-2.5341499 9.9540501 -0.85000002
-2.5343091 9.8540506 -0.85000002
-1.6330364 10.652616 -0.75
-1.7331953 10.552775 -0.64999998
-2.1349468 9.453413 -2.3499999
-2.0352654 9.2532539 -2.3499999
-1.9357435 8.9530954 -2.3499999
-2.0354247 9.1532545 -2.3499999
-2.1354246 9.1534138 -2.3499999
-2.0357432 8.9532547 -2.25
-1.936062 8.7530956 -2.25
-1.9363805 8.5530958 -2.25
-1.9365398 8.4530954 -2.25
-2.0360618 8.7532549 -2.25
-2.0363803 8.5532551 -2.25
-1.936699 8.353097 -2.25
-1.936699 8.353097 -2.1500001
-2.3370168 8.1537333 -1.95
-2.536061 8.7540512 -2.05
-1.5379736 7.5524597 -1.95
-1.5382922 7.3524599 -1.95
-1.5384514 7.25246 -1.95
-1.5382922 7.3524599 -1.85
-1.5384514 7.25246 -1.85
-1.5386107 7.1524601 -1.85
-1.4392478 6.7523012 -1.75
-1.3397257 6.4521422 -1.75
-1.6374958 7.8526182 -1.95
-1.637655 7.7526188 -1.95
-1.6378143 7.6526189 -1.95
-2.2376542 7.7535744 -1.85
-1.6379735 7.552619 -1.95
-1.6381328 7.4526186 -1.95
-1.6381328 7.4526186 -1.85
-1.6382921 7.3526192 -1.85
-2.1379728 7.5534153 -1.75
-2.0382915 7.3532562 -1.75
-1.8389288 6.9529381 -1.65
-2.03861 7.1532564 -1.75
-1.3354256 9.1521397 -0.64999998
-1.4360626 8.7522993 -0.64999998
-1.3363812 8.5521402 -0.64999998
-1.4363811 8.5522995 -0.64999998
-1.1370186 8.1518221 -0.75
-1.1371778 8.0518227 -0.64999998
-1.1370186 8.1518221 -0.55000001
-1.2366999 8.3519821 -0.64999998
-1.3366997 8.3521414 -0.64999998
-1.2368592 8.2519817 -0.64999998
-1.336859 8.252141 -0.64999998
-1.2370185 8.1519814 -0.75
-1.2370185 8.1519814 -0.64999998
-1.3371775 8.0521412 -0.64999998
-1.2368592 8.2519817 -0.55000001
-1.2371777 8.0519819 -0.55000001
-2.4347873 9.5538912 -0.85000002
-2.4352651 9.253891 -0.85000002
-2.4355836 9.0538921 -0.85000002
-2.3355834 9.0537329 -0.75
-2.7359016 8.8543701 -0.34999999
-2.2366986 8.3535748 -0.75
-1.1373371 7.9518218 -0.55000001
-1.1374964 7.8518219 -0.55000001
-1.1378149 7.6518226 -0.55000001
-1.237337 7.9519811 -0.64999998
-1.9395658 6.5530982 -0.25
-2.0392473 6.7532568 -0.25
-2.0395658 6.5532575 -0.25
-5.4362168 8.6586695 -2.6500001
-5.1368546 8.258193 -2.55
-3.8392451 6.7561235 -3.05
-3.8394043 6.6561236 -3.05
-3.739723 6.4559646 -2.95
-4.7394032 6.657557 -2.6500001
-4.739244 6.7575569 -2.55
-4.6394033 6.6573977 -2.55
-4.7394032 6.657557 -2.55
-4.7394032 6.657557 -2.45
-4.5397224 6.4572387 -2.55
-4.5397224 6.4572387 -2.45
-4.6395626 6.5573983 -2.55
-4.6395626 6.5573983 -2.45
-4.5397224 6.4572387 -1.65
-6.3374901 7.8601036 -3.1500001
-6.1378093 7.6597857 -3.05
-6.3378086 7.6601043 -3.1500001
-6.2376494 7.7599449 -3.05
-6.3378086 7.6601043 -3.05
-6.1378093 7.6597857 -2.95
-6.2378087 7.659945 -2.95
-5.8381276 7.4593077 -3.05
-5.9381275 7.4594669 -3.05
-6.237968 7.5599451 -3.05
-6.1382871 7.359786 -3.05
-6.237968 7.5599451 -2.95
-6.1382871 7.359786 -2.95
-6.0384464 7.2596269 -2.8499999
-6.2373309 7.9599442 -2.45
-6.3373308 7.9601035 -2.45
-5.8382869 7.3593082 -2.45
-5.2390842 6.8583531 -3.05
-4.9395623 6.5578761 -2.8499999
-4.9389253 6.9578753 -2.75
-4.9390845 6.8578753 -2.6500001
-4.9389253 6.9578753 -2.55
-4.9390845 6.8578753 -2.55
-4.8390846 6.8577161 -2.45
-4.8392439 6.7577162 -2.6500001
-5.0397215 6.458035 -2.75
-4.8392439 6.7577162 -2.55
-5.3394027 6.6585126 -2.6500001
-5.3395619 6.5585132 -2.75
-5.2397213 6.4583535 -2.75
-5.3397212 6.4585128 -2.75
-5.7389245 6.9591494 -2.8499999
-5.8387647 7.0593085 -2.75
-6.0386057 7.159627 -2.6500001
-5.6392431 6.7589903 -2.45
-6.2374902 7.8599443 -2.3499999
-6.13765 7.7597857 -2.3499999
-6.0378094 7.6596265 -2.3499999
-6.0378094 7.6596265 -2.25
-5.8381276 7.4593077 -2.25
-5.7384467 7.2591491 -2.25
-5.7382874 7.359149 -2.1500001
-5.5389247 6.9588308 -2.1500001
-5.1395621 6.5581946 -2.05
-5.5392432 6.758831 -2.25
-5.4394021 6.6586719 -2.25
-5.4395614 6.5586724 -2.3499999
-5.3392434 6.7585125 -2.05
-5.2394028 6.6583533 -2.05
-5.239562 6.5583539 -2.1500001
-5.3395619 6.5585132 -2.1500001
-5.2397213 6.4583535 -2.1500001
-5.239562 6.5583539 -2.05
-5.1395621 6.5581946 -1.95
-5.0397215 6.458035 -1.95
-5.1397214 6.4581943 -1.95
-5.3394027 6.6585126 -1.95
-5.7389245 6.9591494 -2.3499999
-5.6389246 6.9589901 -2.1500001
-5.6389246 6.9589901 -2.05
-5.4366946 8.3586712 -1.05
-5.536695 8.3588305 -1.05
-5.4368539 8.2586708 -1.05
-5.4370131 8.1586704 -1.05
-5.3370137 8.1585112 -0.94999999
-5.337173 8.0585117 -0.94999999
-5.4370131 8.1586704 -0.94999999
-5.5371728 8.0588303 -0.94999999
-5.5370135 8.1588297 -0.85000002
-5.4371724 8.058671 -0.85000002
-5.5371728 8.0588303 -0.85000002
-5.736217 8.6591473 -1.15
-5.8360572 8.7593069 -1.05
-5.6363764 8.5589886 -1.05
-5.8362164 8.6593065 -0.94999999
-5.7363763 8.5591478 -0.94999999
-5.8363757 8.5593071 -0.94999999
-6.3363752 8.5601034 -1.05
-6.036376 8.5596256 -0.94999999
-5.6366949 8.3589897 -1.05
-5.6371727 8.0589895 -1.05
-5.7371726 8.0591488 -1.05
-5.8370128 8.1593075 -1.05
-5.6366949 8.3589897 -0.94999999
-5.6368542 8.2589893 -0.94999999
-5.6371727 8.0589895 -0.94999999
-5.7371726 8.0591488 -0.94999999
-5.7371726 8.0591488 -0.85000002
-5.8370128 8.1593075 -0.94999999
-6.0371723 8.0596266 -1.05
-6.1371722 8.0597858 -1.05
-6.3370123 8.1601038 -0.94999999
-6.3371716 8.0601044 -0.94999999
-6.3370123 8.1601038 -0.85000002
-6.3371716 8.0601044 -0.85000002
-6.3371716 8.0601044 -0.55000001
-6.2370124 8.1599445 -0.44999999
-6.3370123 8.1601038 -0.44999999
-6.3371716 8.0601044 -0.44999999
-6.3370123 8.1601038 -0.34999999
-6.3371716 8.0601044 -0.34999999
-4.7379699 7.5575562 -0.94999999
-4.7381291 7.4575558 -0.94999999
-4.7381291 7.4575558 -0.85000002
-4.6382885 7.3573971 -0.85000002
-4.7382884 7.3575563 -0.85000002
-4.5386076 7.157238 -0.85000002
-4.4387665 7.0570788 -0.85000002
-4.7387662 7.0575566 -0.85000002
-4.7389255 6.9575567 -0.85000002
-4.7395625 6.5575576 -0.85000002
-4.7397218 6.4575572 -0.85000002
-4.3389258 6.9569197 -0.75
-4.2390852 6.8567605 -0.75
-4.5386076 7.157238 -0.75
-4.4387665 7.0570788 -0.75
-4.638607 7.1573973 -0.75
-4.6387663 7.0573974 -0.75
-4.4389257 6.9570789 -0.75
-4.5390854 6.8572383 -0.75
-4.6389256 6.9573975 -0.75
-4.7389255 6.9575567 -0.75
-4.6390848 6.8573976 -0.75
-4.139245 6.7566013 -0.75
-4.2392445 6.7567606 -0.75
-4.3394036 6.65692 -0.64999998
-4.3397222 6.4569201 -0.75
-4.3395629 6.5569205 -0.64999998
-4.2397223 6.4567609 -0.64999998
-4.3397222 6.4569201 -0.64999998
-4.5392447 6.7572384 -0.75
-4.4394035 6.6570792 -0.75
-4.5394039 6.6572385 -0.75
-4.4392443 6.7570791 -0.64999998
-4.6392441 6.7573977 -0.75
-4.4395628 6.5570798 -0.75
-5.1374917 7.8581924 -0.94999999
-5.1374917 7.8581924 -0.85000002
-4.8378105 7.6577153 -0.94999999
-4.9378104 7.6578746 -0.94999999
-4.9378104 7.6578746 -0.85000002
-5.0376511 7.7580338 -0.94999999
-5.0376511 7.7580338 -0.85000002
-5.137651 7.758193 -0.85000002
-5.0378103 7.6580338 -0.85000002
-5.1378102 7.6581931 -0.85000002
-5.2373323 7.9583516 -0.94999999
-5.2374916 7.8583517 -0.94999999
-5.3374915 7.858511 -0.85000002
-5.5373321 7.9588294 -0.94999999
-5.4374909 7.8586702 -0.85000002
-5.5374913 7.8588295 -0.85000002
-5.3376508 7.7585115 -0.85000002
-5.2378101 7.6583524 -0.85000002
-5.33781 7.6585116 -0.85000002
-5.5376506 7.7588301 -0.94999999
-5.5378098 7.6588302 -0.94999999
-5.4376502 7.7586708 -0.85000002
-5.5376506 7.7588301 -0.85000002
-5.5378098 7.6588302 -0.85000002
-4.8379698 7.5577154 -0.94999999
-4.9379697 7.5578747 -0.85000002
-4.838129 7.457715 -0.85000002
-5.1381288 7.4581928 -0.85000002
-4.8382883 7.3577156 -0.85000002
-4.9382882 7.3578749 -0.85000002
-5.0382881 7.3580341 -0.85000002
-5.5379691 7.5588303 -1.05
-5.438128 7.4586706 -1.05
-5.3384471 7.258512 -1.05
-5.3381286 7.4585114 -0.94999999
-5.3379693 7.5585117 -0.85000002
-5.4379687 7.558671 -0.94999999
-5.5379691 7.5588303 -0.94999999
-5.4379687 7.558671 -0.85000002
-5.5379691 7.5588303 -0.85000002
-5.438128 7.4586706 -0.85000002
-5.5381284 7.4588299 -0.85000002
-5.2384472 7.2583528 -0.94999999
-5.3384471 7.258512 -0.94999999
-6.237968 7.5599451 -1.25
-5.7374911 7.859148 -1.05
-5.9373312 7.9594665 -1.05
-5.8374906 7.8593073 -1.05
-5.7376504 7.7591486 -1.05
-5.6378098 7.6589894 -1.05
-5.6374912 7.8589888 -0.94999999
-5.7374911 7.859148 -0.94999999
-5.637332 7.9589887 -0.85000002
-5.6374912 7.8589888 -0.85000002
-5.8373313 7.9593072 -0.94999999
-5.9373312 7.9594665 -0.94999999
-5.8374906 7.8593073 -0.94999999
-5.9374905 7.8594666 -0.94999999
-5.8374906 7.8593073 -0.85000002
-5.6376505 7.7589893 -0.94999999
-5.7376504 7.7591486 -0.94999999
-5.6376505 7.7589893 -0.85000002
-5.7376504 7.7591486 -0.85000002
-5.6378098 7.6589894 -0.85000002
-5.8376498 7.7593079 -0.85000002
-6.1374907 7.8597851 -0.94999999
-6.2373309 7.9599442 -0.94999999
-6.3373308 7.9601035 -0.94999999
-6.2374902 7.8599443 -0.94999999
-6.3374901 7.8601036 -0.94999999
-6.2373309 7.9599442 -0.85000002
-6.2374902 7.8599443 -0.85000002
-6.0376501 7.7596264 -0.94999999
-6.13765 7.7597857 -0.94999999
-6.0378094 7.6596265 -0.94999999
-6.13765 7.7597857 -0.85000002
-6.0378094 7.6596265 -0.85000002
-5.938446 7.2594676 -1.15
-5.7381282 7.4591484 -0.94999999
-5.637969 7.5589895 -0.85000002
-5.9379683 7.5594673 -0.94999999
-5.9379683 7.5594673 -0.85000002
-5.6384468 7.2589898 -0.94999999
-5.7384467 7.2591491 -0.85000002
-5.8382869 7.3593082 -0.85000002
-4.8386068 7.1577158 -0.85000002
-4.9390845 6.8578753 -0.85000002
-5.0389252 6.9580345 -0.85000002
-5.5387654 7.0588307 -0.85000002
-5.3390841 6.8585124 -0.85000002
-5.4389243 6.9586716 -0.85000002
-5.5389247 6.9588308 -0.85000002
-4.9392438 6.7578754 -0.85000002
-5.1394029 6.6581941 -0.85000002
-4.9395623 6.5578761 -0.94999999
-4.8395624 6.5577168 -0.85000002
-5.1395621 6.5581946 -0.85000002
-5.0397215 6.458035 -0.85000002
-5.1397214 6.4581943 -0.85000002
-5.5392432 6.758831 -1.05
-5.4394021 6.6586719 -1.05
-5.3395619 6.5585132 -1.05
-5.2397213 6.4583535 -1.05
-5.3397212 6.4585128 -1.05
-5.4395614 6.5586724 -1.05
-5.3392434 6.7585125 -0.85000002
-5.2394028 6.6583533 -0.85000002
-5.9386053 7.1594677 -1.15
-5.6390839 6.8589902 -1.15
-5.7389245 6.9591494 -1.05
-5.6390839 6.8589902 -1.05
-5.6387653 7.05899 -0.94999999
-5.6386061 7.1589899 -0.85000002
-5.3376508 7.7585115 -0.75
-5.2378101 7.6583524 -0.75
-5.5376506 7.7588301 -0.75
-5.4378095 7.6586709 -0.75
-5.0381289 7.4580336 -0.75
-5.1381288 7.4581928 -0.75
-5.0384474 7.2580342 -0.75
-5.2379694 7.5583525 -0.75
-5.2381287 7.4583521 -0.75
-5.3381286 7.4585114 -0.75
-5.4379687 7.558671 -0.75
-5.5379691 7.5588303 -0.75
-5.438128 7.4586706 -0.75
-5.5381284 7.4588299 -0.75
-5.3382878 7.3585119 -0.75
-5.2384472 7.2583528 -0.75
-5.3384471 7.258512 -0.75
-5.4382873 7.3586712 -0.75
-6.1374907 7.8597851 -0.44999999
-6.2373309 7.9599442 -0.44999999
-6.0378094 7.6596265 -0.44999999
-6.3378086 7.6601043 -0.55000001
-6.2378087 7.659945 -0.44999999
-6.3378086 7.6601043 -0.44999999
-5.938446 7.2594676 -0.44999999
-6.1379685 7.5597858 -0.44999999
-6.1381278 7.4597855 -0.44999999
-6.237968 7.5599451 -0.55000001
-6.237968 7.5599451 -0.44999999
-6.0382872 7.3596268 -0.44999999
-6.1374907 7.8597851 -0.34999999
-6.2373309 7.9599442 -0.34999999
-6.3373308 7.9601035 -0.34999999
-6.13765 7.7597857 -0.34999999
-4.9386067 7.1578751 -0.64999998
-5.1395621 6.5581946 -0.75
-5.0397215 6.458035 -0.75
-5.1397214 6.4581943 -0.75
-5.2394028 6.6583533 -0.75
-5.2397213 6.4583535 -0.75
-5.4392428 6.7586718 -0.44999999
-5.5392432 6.758831 -0.44999999
-5.7387652 7.0591493 -0.44999999
-5.8386054 7.1593084 -0.44999999
-5.6389246 6.9589901 -0.44999999
-6.4376493 7.7602634 -3.25
-6.5368533 8.2604227 -2.45
-6.4370122 8.1602631 -2.45
-6.4371715 8.0602636 -2.45
-6.4376493 7.7602634 -2.95
-6.5373311 7.960422 -2.6500001
-6.5374904 7.8604221 -2.55
-6.6365342 8.4605808 -0.94999999
-6.6365342 8.4605808 -0.85000002
-6.6366935 8.3605824 -1.05
-6.536694 8.3604231 -0.94999999
-6.5368533 8.2604227 -0.94999999
-6.5368533 8.2604227 -0.85000002
-6.6366935 8.3605824 -0.94999999
-6.6368527 8.260582 -0.94999999
-6.4370122 8.1602631 -0.94999999
-6.4370122 8.1602631 -0.85000002
-6.5365348 8.4604216 -0.55000001
-6.6365342 8.4605808 -0.44999999
-6.536694 8.3604231 -0.44999999
-6.4368529 8.2602634 -0.44999999
-6.5368533 8.2604227 -0.44999999
-6.4370122 8.1602631 -0.44999999
-6.5365348 8.4604216 -0.34999999
-6.6365342 8.4605808 -0.34999999
-6.7365341 8.4607401 -0.34999999
-6.6365342 8.4605808 -0.25
-6.536694 8.3604231 -0.34999999
-6.4368529 8.2602634 -0.34999999
-6.5368533 8.2604227 -0.34999999
-6.6366935 8.3605824 -0.34999999
-6.4370122 8.1602631 -0.34999999
-6.4376493 7.7602634 -1.25
-6.43749 7.8602629 -0.55000001
-6.43749 7.8602629 -0.44999999
-6.4376493 7.7602634 -0.44999999
-6.5376496 7.7604227 -0.44999999
-6.5376496 7.7604227 -0.34999999
-2.7416353 5.2543736 -3.25
-3.1424313 4.7550111 -3.45
-1.3400443 6.2521424 -1.65
-3.1421127 4.9550109 -2.05
-3.1417942 5.1550107 -1.95
-3.1419535 5.0550108 -1.95
-3.1419535 5.0550108 -1.85
-2.9422722 4.8546925 -1.85
-3.0421128 4.9548516 -1.95
-3.142272 4.855011 -1.95
-3.0421128 4.9548516 -1.85
-3.1421127 4.9550109 -1.85
-3.0422721 4.8548517 -1.85
-3.142272 4.855011 -1.85
-0.043231167 4.2500744 -1.75
-0.14323105 4.2502337 -1.75
-1.344663 3.3521459 -2.3499999
-1.3448223 3.2521462 -2.3499999
-1.5446628 3.3524644 -2.1500001
-1.4446629 3.3523052 -2.05
-1.5446628 3.3524644 -2.05
-1.4448222 3.2523055 -2.05
-1.4448222 3.2523055 -1.95
-3.1425905 4.6550112 -2.6500001
-3.0427499 4.5548525 -2.6500001
-2.9429092 4.4546928 -2.55
-3.0427499 4.5548525 -2.55
-2.743228 4.2543745 -2.45
-2.7433872 4.1543751 -2.45
-3.0433869 4.1548529 -2.6500001
-3.1433868 4.1550121 -2.6500001
-3.1435461 4.0550122 -2.6500001
-2.8430686 4.3545337 -2.45
-3.1430683 4.3550115 -2.55
-3.1432276 4.2550116 -2.55
-3.0432277 4.2548523 -2.45
-3.1432276 4.2550116 -2.45
-2.9435463 4.0546937 -2.45
-3.0435462 4.054853 -2.55
-3.1433868 4.1550121 -2.45
-3.1435461 4.0550122 -2.45
-2.743865 3.8543751 -2.45
-2.6440246 3.754216 -2.45
-2.7440243 3.7543752 -2.45
-2.6441839 3.6542163 -2.45
-2.7441835 3.6543756 -2.45
-2.9437056 3.9546936 -2.55
-2.8438649 3.8545344 -2.55
-2.9438648 3.8546937 -2.55
-2.8438649 3.8545344 -2.45
-3.0437055 3.9548528 -2.55
-2.9440241 3.7546937 -2.55
-2.8440242 3.7545345 -2.45
-2.2432287 4.2535782 -1.85
-2.2433879 4.1535788 -1.85
-2.3432283 4.2537374 -1.75
-2.2435472 4.0535789 -1.75
-2.6435468 4.0542159 -2.3499999
-3.1432276 4.2550116 -2.3499999
-3.1432276 4.2550116 -2.25
-3.1435461 4.0550122 -2.3499999
-3.1433868 4.1550121 -2.25
-3.1435461 4.0550122 -2.1500001
-2.7429094 4.4543743 -1.85
-2.7429094 4.4543743 -1.75
-2.9425907 4.6546926 -1.95
-2.9424314 4.7546926 -1.85
-2.8425908 4.6545334 -1.85
-3.0424314 4.7548518 -1.95
-3.1424313 4.7550111 -1.85
-2.8427501 4.554534 -1.85
-2.9429092 4.4546928 -1.85
-2.8425908 4.6545334 -1.75
-2.9425907 4.6546926 -1.75
-2.8427501 4.554534 -1.75
-2.8429093 4.4545336 -1.75
-2.6432283 4.2542152 -1.65
-2.4433877 4.1538973 -1.65
-2.5433874 4.1540565 -1.65
-2.5435467 4.0540566 -1.65
-2.6433876 4.1542158 -1.65
-2.8430686 4.3545337 -1.85
-3.1432276 4.2550116 -1.85
-3.0433869 4.1548529 -1.85
-3.1433868 4.1550121 -1.85
-3.0435462 4.054853 -1.75
-2.2441843 3.6535792 -2.05
-2.3441839 3.6537385 -2.05
-2.1445029 3.4534202 -2.05
-2.2443435 3.5535791 -2.05
-2.1437066 3.9534194 -1.75
-2.0438659 3.8532603 -1.65
-2.0440252 3.7532604 -1.65
-1.9448216 3.2531018 -1.85
-2.1445029 3.4534202 -1.95
-2.0446622 3.3532608 -1.95
-2.0448215 3.2532611 -1.85
-2.244662 3.3535793 -1.95
-2.3446617 3.3537385 -1.95
-2.2448213 3.2535796 -1.95
-2.2448213 3.2535796 -1.85
-2.5437059 3.9540565 -2.3499999
-2.5438652 3.8540566 -2.25
-2.6437061 3.9542158 -2.3499999
-2.5440245 3.7540567 -2.3499999
-2.5441837 3.654057 -2.3499999
-2.6440246 3.754216 -2.3499999
-2.7441835 3.6543756 -2.3499999
-2.6441839 3.6542163 -2.05
-2.8438649 3.8545344 -2.3499999
-2.9438648 3.8546937 -2.25
-3.0437055 3.9548528 -2.3499999
-2.8440242 3.7545345 -2.25
-2.9437056 3.9546936 -2.1500001
-2.8438649 3.8545344 -2.05
-2.4443433 3.5538976 -2.3499999
-2.544343 3.5540569 -2.3499999
-2.4445026 3.453898 -2.3499999
-2.4445026 3.453898 -2.25
-2.5445023 3.4540572 -2.25
-2.6443431 3.5542161 -2.3499999
-2.6445024 3.4542165 -2.25
-2.5446615 3.3540571 -2.25
-2.7443428 3.5543754 -2.05
-2.7440243 3.7543752 -1.65
-2.9437056 3.9546936 -1.75
-2.8438649 3.8545344 -1.65
-2.5445023 3.4540572 -1.85
-2.5446615 3.3540571 -1.95
-2.4446619 3.3538978 -1.85
-2.5446615 3.3540571 -1.85
-2.4448211 3.2538981 -1.85
-2.5448208 3.2540574 -1.85
-2.4448211 3.2538981 -1.75
-2.7416353 5.2543736 -1.35
-2.9413166 5.4546914 -1.45
-2.841476 5.3545327 -1.45
-2.9413166 5.4546914 -1.35
-2.841476 5.3545327 -1.35
-2.9414759 5.354692 -1.35
-2.8416352 5.2545328 -1.35
-2.841476 5.3545327 -1.25
-2.8416352 5.2545328 -1.25
-2.7417946 5.1543736 -1.35
-2.6419542 5.0542145 -1.35
-2.7419538 5.0543737 -1.35
-2.6417949 5.1542144 -1.25
-2.7417946 5.1543736 -1.25
-2.6419542 5.0542145 -1.25
-2.7419538 5.0543737 -1.25
-2.5421133 4.9540553 -1.25
-2.4422729 4.8538961 -1.25
-2.5422726 4.8540554 -1.25
-2.6421134 4.9542146 -1.35
-2.6421134 4.9542146 -1.25
-2.7421131 4.9543738 -1.25
-2.6422727 4.8542147 -1.25
-2.8417945 5.1545329 -1.35
-2.8417945 5.1545329 -1.25
-2.5421133 4.9540553 -1.15
-2.6421134 4.9542146 -1.15
-2.6422727 4.8542147 -1.15
-1.7405216 5.9527798 -0.55000001
-1.640681 5.8526206 -0.55000001
-1.9398843 6.3530979 -0.25
-1.9400436 6.253098 -0.25
-1.8406807 5.8529391 -0.25
-3.1414757 5.3550105 -0.75
-3.1414757 5.3550105 -0.64999998
-3.041635 5.2548513 -0.64999998
-3.1416349 5.2550106 -0.64999998
-1.2446632 3.3519866 -1.05
-1.2448225 3.251987 -1.05
-0.74482298 3.2511907 -0.34999999
-0.94402641 3.7515085 -0.34999999
-0.94418567 3.6515088 -0.34999999
-0.94434494 3.5515087 -0.34999999
-0.84450436 3.4513497 -0.34999999
-0.9445042 3.451509 -0.34999999
-0.84466362 3.3513496 -0.34999999
-0.84482288 3.2513499 -0.34999999
-2.342432 4.753737 -1.25
-2.3425913 4.6537371 -1.25
-2.2427509 4.5535784 -1.25
-2.3427505 4.5537376 -1.25
-2.3427505 4.5537376 -1.15
-2.2429101 4.453578 -1.15
-2.3429098 4.4537373 -1.15
-2.2430694 4.3535781 -1.15
-2.4424322 4.7538962 -1.25
-2.5424318 4.7540555 -1.25
-2.4425914 4.6538963 -1.25
-2.5425911 4.6540556 -1.25
-2.4427507 4.5538969 -1.25
-2.4424322 4.7538962 -1.15
-2.5424318 4.7540555 -1.15
-2.4425914 4.6538963 -1.15
-2.642432 4.7542148 -1.15
-2.4427507 4.5538969 -1.15
-3.1424313 4.7550111 -1.05
-3.1425905 4.6550112 -1.05
-2.9429092 4.4546928 -1.05
-3.0427499 4.5548525 -1.05
-2.9429092 4.4546928 -0.94999999
-2.743228 4.2543745 -0.94999999
-2.6433876 4.1542158 -0.94999999
-2.7433872 4.1543751 -0.94999999
-2.6435468 4.0542159 -0.94999999
-2.8430686 4.3545337 -0.94999999
-2.2438657 3.8535788 -1.55
-2.1441844 3.65342 -1.55
-2.0441844 3.6532607 -1.45
-2.3440247 3.7537382 -1.55
-1.9443437 3.5531013 -1.45
-1.9445031 3.4531016 -1.45
-2.1443436 3.5534198 -1.55
-2.0443437 3.5532606 -1.45
-2.2443435 3.5535791 -1.55
-2.3443432 3.5537384 -1.35
-2.3443432 3.5537384 -1.25
-2.3445024 3.4537387 -1.25
-2.244662 3.3535793 -1.25
-1.9440252 3.7531011 -1.15
-2.0438659 3.8532603 -1.15
-2.0440252 3.7532604 -1.15
-2.3440247 3.7537382 -0.85000002
-2.3441839 3.6537385 -0.85000002
-2.1446621 3.35342 -1.15
-2.1448214 3.2534204 -1.15
-2.244662 3.3535793 -1.15
-2.3446617 3.3537385 -1.15
-2.2448213 3.2535796 -1.15
-2.344821 3.2537389 -1.15
-2.4438655 3.8538973 -1.55
-2.5440245 3.7540567 -1.35
-2.4441841 3.6538978 -1.35
-2.5441837 3.654057 -1.35
-2.5440245 3.7540567 -1.25
-2.4441841 3.6538978 -1.25
-2.7441835 3.6543756 -1.35
-2.8440242 3.7545345 -1.35
-2.4443433 3.5538976 -1.35
-2.5445023 3.4540572 -1.25
-2.6443431 3.5542161 -1.25
-2.5437059 3.9540565 -0.85000002
-2.4438655 3.8538973 -0.85000002
-2.4440248 3.7538974 -0.85000002
-3.1432276 4.2550116 -0.64999998
-3.0433869 4.1548529 -0.64999998
-3.1433868 4.1550121 -0.64999998
-3.1433868 4.1550121 -0.55000001
-3.1435461 4.0550122 -0.55000001
-1.9448216 3.2531018 -0.64999998
-2.1443436 3.5534198 -0.75
-2.044503 3.4532609 -0.75
-2.1445029 3.4534202 -0.75
-2.2443435 3.5535791 -0.75
-2.0446622 3.3532608 -0.75
-2.1443436 3.5534198 -0.44999999
-2.1445029 3.4534202 -0.44999999
-2.0446622 3.3532608 -0.44999999
-2.9438648 3.8546937 -0.55000001
-3.0437055 3.9548528 -0.55000001
-2.8440242 3.7545345 -0.55000001
-2.8441834 3.6545348 -0.55000001
-2.7443428 3.5543754 -0.55000001
-2.6445024 3.4542165 -0.55000001
-2.5446615 3.3540571 -0.55000001
-3.9403598 6.056284 -2.45
-3.3405197 5.955328 -2.75
-3.8405192 5.9561243 -2.45
-4.739881 6.3575573 -2.8499999
-4.4403591 6.0570803 -2.6500001
-4.4398813 6.3570795 -2.45
-4.4405184 5.9570799 -2.6500001
-4.7406774 5.8575578 -2.55
-4.7406774 5.8575578 -2.45
-4.4409962 5.6570807 -2.45
-4.5409966 5.6572399 -2.45
-4.6408367 5.7573991 -2.45
-3.9416339 5.2562847 -3.05
-3.9417932 5.1562848 -3.1500001
-3.9419525 5.0562849 -3.1500001
-3.8422711 4.8561258 -3.1500001
-3.8421118 4.9561257 -3.05
-3.9421117 4.956285 -3.05
-3.8422711 4.8561258 -3.05
-3.8419526 5.0561256 -2.95
-3.9419525 5.0562849 -2.8499999
-3.6422715 4.8558073 -2.95
-3.7421119 4.9559665 -2.8499999
-3.6422715 4.8558073 -2.8499999
-3.8422711 4.8561258 -2.8499999
-3.942271 4.8562851 -2.8499999
-3.6422715 4.8558073 -2.75
-3.8421118 4.9561257 -2.75
-3.8422711 4.8561258 -2.75
-4.1413155 5.4566026 -3.1500001
-4.2413149 5.4567618 -3.05
-4.1414747 5.3566031 -3.05
-4.1417933 5.1566033 -3.1500001
-4.0419526 5.0564442 -3.05
-4.1419525 5.0566034 -2.95
-4.0413156 5.4564433 -2.45
-3.9406784 5.8562837 -2.25
-3.6408381 5.7558064 -2.3499999
-3.7408378 5.7559657 -2.3499999
-3.6409974 5.6558065 -2.3499999
-3.7409971 5.6559658 -2.3499999
-3.8408377 5.756125 -2.1500001
-3.9408376 5.7562842 -2.1500001
-3.840997 5.6561251 -2.1500001
-3.9408376 5.7562842 -2.05
-3.840997 5.6561251 -2.05
-4.3400407 6.2569203 -2.3499999
-4.1403599 6.0566025 -2.25
-4.2402 6.1567616 -2.3499999
-4.0405192 5.9564428 -2.25
-4.1405191 5.9566021 -2.25
-4.3409963 5.6569214 -2.3499999
-4.640996 5.6573992 -2.05
-4.7406774 5.8575578 -1.95
-4.6405182 5.9573984 -1.85
-4.5409966 5.6572399 -1.85
-4.6408367 5.7573991 -1.85
-4.640996 5.6573992 -1.85
-4.4409962 5.6570807 -1.75
-3.4413161 5.4554877 -2.25
-3.5413158 5.455647 -2.25
-3.3416345 5.2553291 -2.25
-3.4414754 5.3554883 -2.25
-3.341316 5.4553285 -2.05
-3.5411565 5.5556474 -2.05
-3.4413161 5.4554877 -2.05
-3.5413158 5.455647 -2.05
-3.3416345 5.2553291 -2.1500001
-3.3414752 5.355329 -2.05
-3.2416348 5.2551699 -2.05
-3.3416345 5.2553291 -2.05
-3.4414754 5.3554883 -2.1500001
-3.4414754 5.3554883 -2.05
-3.5414751 5.3556476 -2.05
-3.4416347 5.2554884 -2.05
-3.9414747 5.3562846 -2.3499999
-3.7411563 5.5559659 -2.05
-3.6413159 5.4558063 -2.05
-3.3417938 5.1553292 -2.1500001
-3.2417941 5.15517 -2.05
-3.3417938 5.1553292 -2.05
-3.2419534 5.0551701 -2.05
-3.2421126 4.9551702 -2.05
-3.5422714 4.855648 -2.1500001
-3.7417934 5.1559663 -2.25
-3.7421119 4.9559665 -2.05
-3.8422711 4.8561258 -2.1500001
-3.8422711 4.8561258 -2.05
-3.942271 4.8562851 -2.05
-3.3414752 5.355329 -1.95
-3.2416348 5.2551699 -1.95
-3.3416345 5.2553291 -1.95
-3.2416348 5.2551699 -1.85
-3.3416345 5.2553291 -1.85
-3.4414754 5.3554883 -1.95
-3.5414751 5.3556476 -1.95
-3.2417941 5.15517 -1.95
-3.3417938 5.1553292 -1.95
-3.2419534 5.0551701 -1.95
-3.2419534 5.0551701 -1.85
-3.9419525 5.0562849 -1.65
-3.8421118 4.9561257 -1.65
-4.1413155 5.4566026 -2.3499999
-4.3411555 5.5569215 -2.3499999
-4.3413148 5.4569211 -2.3499999
-4.2414742 5.3567624 -2.3499999
-4.2414742 5.3567624 -2.25
-4.3414741 5.3569217 -2.25
-4.2416334 5.2567625 -2.25
-4.4411554 5.5570807 -2.3499999
-4.5411558 5.55724 -2.3499999
-4.4413147 5.4570804 -2.3499999
-4.4411554 5.5570807 -2.25
-4.0419526 5.0564442 -2.25
-4.0419526 5.0564442 -2.1500001
-4.3411555 5.5569215 -1.85
-4.3413148 5.4569211 -1.85
-4.2414742 5.3567624 -1.95
-4.2416334 5.2567625 -1.95
-4.2414742 5.3567624 -1.85
-4.3411555 5.5569215 -1.75
-4.3413148 5.4569211 -1.75
-4.2413149 5.4567618 -1.65
-4.1414747 5.3566031 -1.75
-4.141634 5.2566032 -1.75
-4.1414747 5.3566031 -1.65
-4.0416341 5.256444 -1.65
-4.141634 5.2566032 -1.65
-4.2414742 5.3567624 -1.75
-4.3414741 5.3569217 -1.75
-4.3414741 5.3569217 -1.65
-4.2416334 5.2567625 -1.65
-4.5413151 5.4572396 -1.95
-4.4411554 5.5570807 -1.85
-4.5411558 5.55724 -1.85
-4.441474 5.3570809 -1.95
-4.4411554 5.5570807 -1.75
-4.4413147 5.4570804 -1.75
-4.0419526 5.0564442 -1.85
