# .PCD v0.7 - Point Cloud Data file format
VERSION 0.7
FIELDS x y z
SIZE 4 4 4
TYPE F F F
COUNT 1 1 1
WIDTH 1643
HEIGHT 1
VIEWPOINT 0 0 0 1 0 0 0
POINTS 1643
DATA ascii
-6.7386045 7.1607418 1.35
-6.4390826 6.8602643 1.35
-6.539083 6.8604236 1.35
-6.6389232 6.9605827 1.35
-6.4390826 6.8602643 1.45
-6.6389232 6.9605827 1.45
-6.8386045 7.1609011 1.45
-6.4392419 6.7602644 1.35
-6.4358974 8.8602629 2.3499999
-6.7360563 8.7607403 1.65
-6.7362156 8.6607399 1.65
-6.6360564 8.760581 1.75
-6.7360563 8.7607403 1.75
-6.7362156 8.6607399 1.75
-6.5365348 8.4604216 1.65
-6.636375 8.5605812 1.65
-6.536694 8.3604231 1.65
-6.5362163 8.6604214 2.3499999
-6.6362157 8.6605806 2.3499999
-6.7362156 8.6607399 2.3499999
-6.5365348 8.4604216 2.25
-6.4363751 8.5602627 2.3499999
-6.5363755 8.5604219 2.3499999
-6.4365344 8.4602623 2.3499999
-6.5365348 8.4604216 2.3499999
-6.636375 8.5605812 2.3499999
-6.7363749 8.5607405 2.3499999
-6.6365342 8.4605808 2.3499999
-6.4366937 8.3602638 2.25
-6.4366937 8.3602638 2.3499999
-6.536694 8.3604231 2.3499999
-6.4368529 8.2602634 2.3499999
-6.536057 8.7604218 2.45
-6.4362159 8.6602621 2.45
-6.5362163 8.6604214 2.45
-6.6362157 8.6605806 2.45
-6.7362156 8.6607399 2.45
-6.4363751 8.5602627 2.45
-6.5363755 8.5604219 2.45
-6.4365344 8.4602623 2.45
-6.5365348 8.4604216 2.45
-6.636375 8.5605812 2.45
-6.7363749 8.5607405 2.45
-6.6365342 8.4605808 2.45
-6.4366937 8.3602638 2.45
-6.536694 8.3604231 2.45
-6.4368529 8.2602634 2.45
-6.5368533 8.2604227 2.45
-1.1410002 5.651825 1.35
-1.3405221 5.9521427 1.35
-1.2408408 5.7519841 1.35
-1.440522 5.952302 1.45
-0.74195623 5.0511885 1.25
-0.7421155 4.9511886 1.25
-0.64227486 4.8510294 1.25
-1.0413188 5.4516654 1.35
-0.94163746 5.2515068 1.25
-0.94163746 5.2515068 1.35
-0.84195614 5.0513477 1.25
-2.2413175 5.4535766 0.050000001
-2.1414769 5.3534179 0.050000001
-2.0409992 5.6532583 1.55
-1.3435481 4.0521455 0.15000001
-1.4433887 4.1523046 0.050000001
-1.5433886 4.1524639 0.050000001
-1.443548 4.0523047 0.050000001
-1.5435479 4.052464 0.050000001
-1.443548 4.0523047 0.15000001
-1.5435479 4.052464 0.15000001
-1.3435481 4.0521455 0.25
-1.443548 4.0523047 0.25
-1.5435479 4.052464 0.25
-1.5433886 4.1524639 0.34999999
-1.443548 4.0523047 0.34999999
-1.5435479 4.052464 0.34999999
-0.84354877 4.0513492 0.44999999
-1.1435484 4.051827 0.64999998
-1.3435481 4.0521455 0.44999999
-1.5433886 4.1524639 0.44999999
-1.443548 4.0523047 0.44999999
-1.5435479 4.052464 0.44999999
-1.5435479 4.052464 0.55000001
-1.2435483 4.0519862 0.64999998
-1.3435481 4.0521455 0.75
-1.443548 4.0523047 0.64999998
-1.5435479 4.052464 0.64999998
-1.5435479 4.052464 0.75
-0.54386765 3.8508713 0.15000001
-0.64386749 3.8510306 0.050000001
-0.7438674 3.8511899 0.050000001
-0.74370813 3.9511898 0.15000001
-0.64386749 3.8510306 0.15000001
-0.7438674 3.8511899 0.15000001
-0.54402691 3.7508714 0.050000001
-0.44418627 3.6507125 0.050000001
-0.54418617 3.6508718 0.050000001
-0.54402691 3.7508714 0.15000001
-0.44418627 3.6507125 0.15000001
-0.54418617 3.6508718 0.15000001
-0.64402676 3.7510307 0.050000001
-0.74402666 3.7511899 0.050000001
-0.64418602 3.651031 0.050000001
-0.64402676 3.7510307 0.15000001
-0.74402666 3.7511899 0.15000001
-0.64418602 3.651031 0.15000001
-0.74418592 3.6511903 0.15000001
-0.54386765 3.8508713 0.25
-0.54386765 3.8508713 0.34999999
-0.64370823 3.9510305 0.25
-0.74370813 3.9511898 0.25
-0.64386749 3.8510306 0.25
-0.7438674 3.8511899 0.25
-0.74370813 3.9511898 0.34999999
-0.64386749 3.8510306 0.34999999
-0.7438674 3.8511899 0.34999999
-0.54402691 3.7508714 0.25
-0.44418627 3.6507125 0.25
-0.54418617 3.6508718 0.25
-0.54402691 3.7508714 0.34999999
-0.44418627 3.6507125 0.34999999
-0.54418617 3.6508718 0.34999999
-0.64402676 3.7510307 0.25
-0.74402666 3.7511899 0.25
-0.64418602 3.651031 0.25
-0.74418592 3.6511903 0.25
-0.64402676 3.7510307 0.34999999
-0.74402666 3.7511899 0.34999999
-0.64418602 3.651031 0.34999999
-0.74418592 3.6511903 0.34999999
-0.34466419 3.3505533 0.050000001
-0.34482345 3.2505536 0.050000001
-0.34482345 3.2505536 0.15000001
-0.34482345 3.2505536 0.25
-0.34466419 3.3505533 0.34999999
-0.34482345 3.2505536 0.34999999
-0.44434553 3.5507123 0.050000001
-0.54434544 3.5508716 0.050000001
-0.4445048 3.4507127 0.050000001
-0.5445047 3.4508719 0.050000001
-0.44434553 3.5507123 0.15000001
-0.54434544 3.5508716 0.15000001
-0.4445048 3.4507127 0.15000001
-0.5445047 3.4508719 0.15000001
-0.64434528 3.5510309 0.050000001
-0.74434519 3.5511901 0.050000001
-0.74434519 3.5511901 0.15000001
-0.74450445 3.4511905 0.15000001
-0.44466406 3.3507125 0.050000001
-0.54466397 3.3508718 0.050000001
-0.44482332 3.2507129 0.050000001
-0.44466406 3.3507125 0.15000001
-0.44482332 3.2507129 0.15000001
-0.74466372 3.3511903 0.050000001
-0.64482307 3.2510314 0.050000001
-0.74482298 3.2511907 0.050000001
-0.74466372 3.3511903 0.15000001
-0.74482298 3.2511907 0.15000001
-0.44434553 3.5507123 0.25
-0.54434544 3.5508716 0.25
-0.4445048 3.4507127 0.25
-0.5445047 3.4508719 0.25
-0.44434553 3.5507123 0.34999999
-0.54434544 3.5508716 0.34999999
-0.4445048 3.4507127 0.34999999
-0.5445047 3.4508719 0.34999999
-0.74434519 3.5511901 0.25
-0.74450445 3.4511905 0.25
-0.74434519 3.5511901 0.34999999
-0.74450445 3.4511905 0.34999999
-0.44466406 3.3507125 0.25
-0.44482332 3.2507129 0.25
-0.44466406 3.3507125 0.34999999
-0.44482332 3.2507129 0.34999999
-0.74466372 3.3511903 0.25
-0.64482307 3.2510314 0.25
-0.74482298 3.2511907 0.25
-0.64466381 3.3510311 0.34999999
-0.74466372 3.3511903 0.34999999
-0.64482307 3.2510314 0.34999999
-0.74482298 3.2511907 0.34999999
-0.54386765 3.8508713 0.44999999
-0.54386765 3.8508713 0.55000001
-0.64370823 3.9510305 0.44999999
-0.74370813 3.9511898 0.44999999
-0.64386749 3.8510306 0.44999999
-0.7438674 3.8511899 0.44999999
-0.64370823 3.9510305 0.55000001
-0.74370813 3.9511898 0.55000001
-0.64386749 3.8510306 0.55000001
-0.7438674 3.8511899 0.55000001
-0.54402691 3.7508714 0.44999999
-0.44418627 3.6507125 0.44999999
-0.54418617 3.6508718 0.44999999
-0.54402691 3.7508714 0.55000001
-0.44418627 3.6507125 0.55000001
-0.54418617 3.6508718 0.55000001
-0.64402676 3.7510307 0.44999999
-0.64418602 3.651031 0.44999999
-0.64402676 3.7510307 0.55000001
-0.64418602 3.651031 0.55000001
-0.74418592 3.6511903 0.55000001
-0.54386765 3.8508713 0.64999998
-0.54386765 3.8508713 0.75
-0.64370823 3.9510305 0.64999998
-0.74370813 3.9511898 0.64999998
-0.64386749 3.8510306 0.64999998
-0.7438674 3.8511899 0.64999998
-0.64370823 3.9510305 0.75
-0.74370813 3.9511898 0.75
-0.64386749 3.8510306 0.75
-0.7438674 3.8511899 0.75
-0.54402691 3.7508714 0.64999998
-0.44418627 3.6507125 0.64999998
-0.54418617 3.6508718 0.64999998
-0.54402691 3.7508714 0.75
-0.44418627 3.6507125 0.75
-0.54418617 3.6508718 0.75
-0.64402676 3.7510307 0.64999998
-0.64418602 3.651031 0.64999998
-0.64402676 3.7510307 0.75
-0.64418602 3.651031 0.75
-0.34466419 3.3505533 0.44999999
-0.34482345 3.2505536 0.44999999
-0.34466419 3.3505533 0.55000001
-0.34482345 3.2505536 0.55000001
-0.34466419 3.3505533 0.64999998
-0.34482345 3.2505536 0.64999998
-0.34466419 3.3505533 0.75
-0.34482345 3.2505536 0.75
-0.44434553 3.5507123 0.44999999
-0.54434544 3.5508716 0.44999999
-0.4445048 3.4507127 0.44999999
-0.5445047 3.4508719 0.44999999
-0.44434553 3.5507123 0.55000001
-0.54434544 3.5508716 0.55000001
-0.4445048 3.4507127 0.55000001
-0.5445047 3.4508719 0.55000001
-0.74434519 3.5511901 0.44999999
-0.74450445 3.4511905 0.44999999
-0.74434519 3.5511901 0.55000001
-0.74450445 3.4511905 0.55000001
-0.44466406 3.3507125 0.44999999
-0.44482332 3.2507129 0.44999999
-0.44466406 3.3507125 0.55000001
-0.44482332 3.2507129 0.55000001
-0.64466381 3.3510311 0.44999999
-0.74466372 3.3511903 0.44999999
-0.64482307 3.2510314 0.44999999
-0.74482298 3.2511907 0.44999999
-0.64466381 3.3510311 0.55000001
-0.74466372 3.3511903 0.55000001
-0.64482307 3.2510314 0.55000001
-0.74482298 3.2511907 0.55000001
-0.44434553 3.5507123 0.64999998
-0.54434544 3.5508716 0.64999998
-0.4445048 3.4507127 0.64999998
-0.5445047 3.4508719 0.64999998
-0.44434553 3.5507123 0.75
-0.54434544 3.5508716 0.75
-0.4445048 3.4507127 0.75
-0.5445047 3.4508719 0.75
-0.74434519 3.5511901 0.64999998
-0.74450445 3.4511905 0.64999998
-0.74434519 3.5511901 0.75
-0.74450445 3.4511905 0.75
-0.44466406 3.3507125 0.64999998
-0.44482332 3.2507129 0.64999998
-0.44466406 3.3507125 0.75
-0.44482332 3.2507129 0.75
-0.74466372 3.3511903 0.64999998
-0.74482298 3.2511907 0.64999998
-0.74466372 3.3511903 0.75
-0.74482298 3.2511907 0.75
-0.94370788 3.9515083 0.050000001
-0.8438673 3.8513491 0.050000001
-0.94386715 3.8515084 0.050000001
-0.84370804 3.951349 0.15000001
-0.94370788 3.9515083 0.15000001
-0.8438673 3.8513491 0.15000001
-1.0437077 3.9516675 0.050000001
-1.1437076 3.9518268 0.050000001
-1.043867 3.8516676 0.050000001
-1.1438669 3.8518269 0.050000001
-1.0437077 3.9516675 0.15000001
-1.1437076 3.9518268 0.15000001
-1.043867 3.8516676 0.15000001
-1.1438669 3.8518269 0.15000001
-0.94402641 3.7515085 0.050000001
-0.84418583 3.6513495 0.050000001
-0.94418567 3.6515088 0.050000001
-0.84402657 3.7513492 0.15000001
-0.94402641 3.7515085 0.15000001
-0.84418583 3.6513495 0.15000001
-0.94418567 3.6515088 0.15000001
-1.0440263 3.7516677 0.050000001
-1.1440262 3.751827 0.050000001
-1.0441855 3.6516681 0.050000001
-1.1441854 3.6518273 0.050000001
-1.0440263 3.7516677 0.15000001
-1.1440262 3.751827 0.15000001
-1.0441855 3.6516681 0.15000001
-1.1441854 3.6518273 0.15000001
-0.84370804 3.951349 0.25
-0.94370788 3.9515083 0.25
-0.8438673 3.8513491 0.25
-0.94386715 3.8515084 0.25
-0.84370804 3.951349 0.34999999
-0.94370788 3.9515083 0.34999999
-0.8438673 3.8513491 0.34999999
-0.94386715 3.8515084 0.34999999
-1.0937873 3.9017472 0.30000001
-0.84402657 3.7513492 0.25
-0.94402641 3.7515085 0.25
-0.84418583 3.6513495 0.25
-0.84402657 3.7513492 0.34999999
-0.94402641 3.7515085 0.34999999
-0.84418583 3.6513495 0.34999999
-1.0440263 3.7516677 0.25
-1.0440263 3.7516677 0.34999999
-1.1440262 3.751827 0.34999999
-1.2437075 3.9519861 0.050000001
-1.3437073 3.9521453 0.050000001
-1.2438668 3.8519862 0.050000001
-1.3438666 3.8521454 0.050000001
-1.2437075 3.9519861 0.15000001
-1.3437073 3.9521453 0.15000001
-1.2438668 3.8519862 0.15000001
-1.3438666 3.8521454 0.15000001
-1.4437072 3.9523046 0.050000001
-1.5437071 3.9524639 0.050000001
-1.4438665 3.8523047 0.050000001
-1.5438664 3.852464 0.050000001
-1.4437072 3.9523046 0.15000001
-1.5437071 3.9524639 0.15000001
-1.4438665 3.8523047 0.15000001
-1.5438664 3.852464 0.15000001
-1.2440261 3.7519863 0.050000001
-1.3440259 3.7521455 0.050000001
-1.2441853 3.6519866 0.050000001
-1.3441851 3.6521459 0.050000001
-1.2440261 3.7519863 0.15000001
-1.3440259 3.7521455 0.15000001
-1.2441853 3.6519866 0.15000001
-1.3441851 3.6521459 0.15000001
-1.4440258 3.7523048 0.050000001
-1.5440257 3.7524641 0.050000001
-1.444185 3.6523051 0.050000001
-1.5441849 3.6524644 0.050000001
-1.4440258 3.7523048 0.15000001
-1.5440257 3.7524641 0.15000001
-1.444185 3.6523051 0.15000001
-1.293787 3.9020658 0.30000001
-1.4937868 3.9023843 0.30000001
-1.2440261 3.7519863 0.25
-1.3440259 3.7521455 0.25
-1.3441851 3.6521459 0.25
-1.2440261 3.7519863 0.34999999
-1.3440259 3.7521455 0.34999999
-1.3441851 3.6521459 0.34999999
-1.4440258 3.7523048 0.25
-1.444185 3.6523051 0.25
-1.5441849 3.6524644 0.25
-1.4440258 3.7523048 0.34999999
-1.5440257 3.7524641 0.34999999
-1.444185 3.6523051 0.34999999
-0.84434509 3.5513494 0.050000001
-0.94434494 3.5515087 0.050000001
-0.84450436 3.4513497 0.050000001
-0.9445042 3.451509 0.050000001
-0.84434509 3.5513494 0.15000001
-1.0443448 3.5516679 0.050000001
-1.1443447 3.5518272 0.050000001
-1.0445042 3.4516683 0.050000001
-1.1445041 3.4518275 0.050000001
-0.84466362 3.3513496 0.050000001
-0.84482288 3.2513499 0.050000001
-1.0446634 3.3516681 0.050000001
-1.1446633 3.3518274 0.050000001
-1.1448226 3.2518277 0.050000001
-0.84434509 3.5513494 0.25
-1.2443446 3.5519865 0.050000001
-1.3443444 3.5521457 0.050000001
-1.244504 3.4519868 0.050000001
-1.3445038 3.4521461 0.050000001
-1.3443444 3.5521457 0.15000001
-1.3445038 3.4521461 0.15000001
-1.4443443 3.552305 0.050000001
-1.4445037 3.4523053 0.050000001
-1.5445036 3.4524646 0.050000001
-1.4443443 3.552305 0.15000001
-1.4445037 3.4523053 0.15000001
-1.2446632 3.3519866 0.050000001
-1.344663 3.3521459 0.050000001
-1.2448225 3.251987 0.050000001
-1.344663 3.3521459 0.15000001
-1.3448223 3.2521462 0.15000001
-1.4446629 3.3523052 0.050000001
-1.5446628 3.3524644 0.050000001
-1.5448221 3.2524648 0.050000001
-1.3443444 3.5521457 0.25
-1.3445038 3.4521461 0.25
-1.3443444 3.5521457 0.34999999
-1.3445038 3.4521461 0.34999999
-1.4443443 3.552305 0.25
-1.5443442 3.5524642 0.25
-1.4445037 3.4523053 0.25
-1.4443443 3.552305 0.34999999
-1.5443442 3.5524642 0.34999999
-1.4445037 3.4523053 0.34999999
-1.5445036 3.4524646 0.34999999
-1.344663 3.3521459 0.25
-1.3448223 3.2521462 0.25
-1.344663 3.3521459 0.34999999
-1.3448223 3.2521462 0.34999999
-1.4446629 3.3523052 0.25
-1.4448222 3.2523055 0.25
-1.5446628 3.3524644 0.34999999
-1.5448221 3.2524648 0.34999999
-0.84370804 3.951349 0.44999999
-0.94370788 3.9515083 0.44999999
-0.8438673 3.8513491 0.44999999
-0.94386715 3.8515084 0.44999999
-0.84370804 3.951349 0.55000001
-0.94370788 3.9515083 0.55000001
-0.8438673 3.8513491 0.55000001
-0.94386715 3.8515084 0.55000001
-1.0937873 3.9017472 0.5
-0.84402657 3.7513492 0.44999999
-0.94402641 3.7515085 0.44999999
-0.84418583 3.6513495 0.44999999
-0.94418567 3.6515088 0.44999999
-0.84402657 3.7513492 0.55000001
-0.94402641 3.7515085 0.55000001
-0.84418583 3.6513495 0.55000001
-1.0440263 3.7516677 0.44999999
-1.1440262 3.751827 0.44999999
-1.0440263 3.7516677 0.55000001
-1.1440262 3.751827 0.55000001
-0.84370804 3.951349 0.64999998
-0.94370788 3.9515083 0.64999998
-0.8438673 3.8513491 0.64999998
-0.94386715 3.8515084 0.64999998
-0.84370804 3.951349 0.75
-0.94370788 3.9515083 0.75
-0.8438673 3.8513491 0.75
-0.94386715 3.8515084 0.75
-1.0937873 3.9017472 0.69999999
-0.84402657 3.7513492 0.64999998
-0.94402641 3.7515085 0.64999998
-0.84418583 3.6513495 0.64999998
-0.94418567 3.6515088 0.64999998
-0.84402657 3.7513492 0.75
-0.94402641 3.7515085 0.75
-0.84418583 3.6513495 0.75
-0.94418567 3.6515088 0.75
-1.0440263 3.7516677 0.64999998
-1.1440262 3.751827 0.64999998
-1.0441855 3.6516681 0.64999998
-1.0440263 3.7516677 0.75
-1.1440262 3.751827 0.75
-1.293787 3.9020658 0.5
-1.4437072 3.9523046 0.44999999
-1.5437071 3.9524639 0.44999999
-1.4438665 3.8523047 0.44999999
-1.5438664 3.852464 0.44999999
-1.4437072 3.9523046 0.55000001
-1.5437071 3.9524639 0.55000001
-1.4438665 3.8523047 0.55000001
-1.5438664 3.852464 0.55000001
-1.2440261 3.7519863 0.44999999
-1.3440259 3.7521455 0.44999999
-1.3441851 3.6521459 0.44999999
-1.2440261 3.7519863 0.55000001
-1.3440259 3.7521455 0.55000001
-1.3441851 3.6521459 0.55000001
-1.4440258 3.7523048 0.44999999
-1.5440257 3.7524641 0.44999999
-1.444185 3.6523051 0.44999999
-1.4440258 3.7523048 0.55000001
-1.5440257 3.7524641 0.55000001
-1.444185 3.6523051 0.55000001
-1.5441849 3.6524644 0.55000001
-1.2437075 3.9519861 0.64999998
-1.3437073 3.9521453 0.64999998
-1.2438668 3.8519862 0.64999998
-1.3438666 3.8521454 0.64999998
-1.2437075 3.9519861 0.75
-1.3437073 3.9521453 0.75
-1.2438668 3.8519862 0.75
-1.3438666 3.8521454 0.75
-1.4937868 3.9023843 0.69999999
-1.2440261 3.7519863 0.64999998
-1.3440259 3.7521455 0.64999998
-1.3441851 3.6521459 0.64999998
-1.2440261 3.7519863 0.75
-1.3440259 3.7521455 0.75
-1.3441851 3.6521459 0.75
-1.4440258 3.7523048 0.64999998
-1.5440257 3.7524641 0.64999998
-1.444185 3.6523051 0.64999998
-1.5441849 3.6524644 0.64999998
-1.4440258 3.7523048 0.75
-1.5440257 3.7524641 0.75
-1.444185 3.6523051 0.75
-1.5441849 3.6524644 0.75
-0.84434509 3.5513494 0.44999999
-0.84434509 3.5513494 0.55000001
-0.84434509 3.5513494 0.64999998
-0.84434509 3.5513494 0.75
-1.3443444 3.5521457 0.44999999
-1.3445038 3.4521461 0.44999999
-1.3443444 3.5521457 0.55000001
-1.3445038 3.4521461 0.55000001
-1.4443443 3.552305 0.44999999
-1.4443443 3.552305 0.55000001
-1.5443442 3.5524642 0.55000001
-1.344663 3.3521459 0.44999999
-1.3448223 3.2521462 0.44999999
-1.344663 3.3521459 0.55000001
-1.3448223 3.2521462 0.55000001
-1.5446628 3.3524644 0.55000001
-1.3443444 3.5521457 0.64999998
-1.3445038 3.4521461 0.64999998
-1.3443444 3.5521457 0.75
-1.3445038 3.4521461 0.75
-1.5443442 3.5524642 0.64999998
-1.4445037 3.4523053 0.64999998
-1.5445036 3.4524646 0.64999998
-1.4445037 3.4523053 0.75
-1.5445036 3.4524646 0.75
-1.344663 3.3521459 0.64999998
-1.3448223 3.2521462 0.64999998
-1.344663 3.3521459 0.75
-1.3448223 3.2521462 0.75
-1.5446628 3.3524644 0.64999998
-1.2435483 4.0519862 0.85000002
-1.3435481 4.0521455 0.85000002
-1.443548 4.0523047 0.85000002
-1.5435479 4.052464 0.94999999
-1.443548 4.0523047 1.15
-1.1435484 4.051827 1.45
-0.54386765 3.8508713 0.85000002
-0.74370813 3.9511898 0.85000002
-0.64386749 3.8510306 0.85000002
-0.7438674 3.8511899 0.85000002
-0.74370813 3.9511898 0.94999999
-0.64386749 3.8510306 0.94999999
-0.7438674 3.8511899 0.94999999
-0.54402691 3.7508714 0.85000002
-0.54418617 3.6508718 0.85000002
-0.54402691 3.7508714 0.94999999
-0.54418617 3.6508718 0.94999999
-0.64402676 3.7510307 0.85000002
-0.74402666 3.7511899 0.85000002
-0.64418602 3.651031 0.85000002
-0.64402676 3.7510307 0.94999999
-0.74402666 3.7511899 0.94999999
-0.64418602 3.651031 0.94999999
-0.74370813 3.9511898 1.05
-0.7438674 3.8511899 1.05
-0.7438674 3.8511899 1.15
-0.54418617 3.6508718 1.05
-0.54418617 3.6508718 1.15
-0.64402676 3.7510307 1.05
-0.74402666 3.7511899 1.05
-0.64418602 3.651031 1.05
-0.64402676 3.7510307 1.15
-0.74402666 3.7511899 1.15
-0.64418602 3.651031 1.15
-0.74418592 3.6511903 1.15
-0.044664554 3.3500755 0.94999999
-0.044823818 3.2500758 0.94999999
-0.34466419 3.3505533 0.85000002
-0.34482345 3.2505536 0.85000002
-0.34482345 3.2505536 0.94999999
-0.044664554 3.3500755 1.05
-0.044823818 3.2500758 1.05
-0.34482345 3.2505536 1.05
-0.34466419 3.3505533 1.15
-0.34482345 3.2505536 1.15
-0.44434553 3.5507123 0.85000002
-0.54434544 3.5508716 0.85000002
-0.4445048 3.4507127 0.85000002
-0.5445047 3.4508719 0.85000002
-0.44434553 3.5507123 0.94999999
-0.54434544 3.5508716 0.94999999
-0.4445048 3.4507127 0.94999999
-0.5445047 3.4508719 0.94999999
-0.74434519 3.5511901 0.85000002
-0.74450445 3.4511905 0.85000002
-0.74434519 3.5511901 0.94999999
-0.74450445 3.4511905 0.94999999
-0.44466406 3.3507125 0.85000002
-0.54466397 3.3508718 0.85000002
-0.44482332 3.2507129 0.85000002
-0.44466406 3.3507125 0.94999999
-0.54466397 3.3508718 0.94999999
-0.44482332 3.2507129 0.94999999
-0.64466381 3.3510311 0.85000002
-0.74466372 3.3511903 0.85000002
-0.74482298 3.2511907 0.85000002
-0.64466381 3.3510311 0.94999999
-0.74466372 3.3511903 0.94999999
-0.74482298 3.2511907 0.94999999
-0.44434553 3.5507123 1.05
-0.54434544 3.5508716 1.05
-0.4445048 3.4507127 1.05
-0.5445047 3.4508719 1.05
-0.44434553 3.5507123 1.15
-0.54434544 3.5508716 1.15
-0.4445048 3.4507127 1.15
-0.5445047 3.4508719 1.15
-0.64434528 3.5510309 1.05
-0.74434519 3.5511901 1.05
-0.74450445 3.4511905 1.05
-0.64434528 3.5510309 1.15
-0.74450445 3.4511905 1.15
-0.44466406 3.3507125 1.05
-0.54466397 3.3508718 1.05
-0.44482332 3.2507129 1.05
-0.44466406 3.3507125 1.15
-0.54466397 3.3508718 1.15
-0.44482332 3.2507129 1.15
-0.74466372 3.3511903 1.05
-0.74482298 3.2511907 1.05
-0.64466381 3.3510311 1.15
-0.74466372 3.3511903 1.15
-0.64482307 3.2510314 1.15
-0.74482298 3.2511907 1.15
-0.7438674 3.8511899 1.35
-0.54418617 3.6508718 1.25
-0.54418617 3.6508718 1.35
-0.64402676 3.7510307 1.25
-0.74402666 3.7511899 1.25
-0.64418602 3.651031 1.25
-0.74418592 3.6511903 1.25
-0.64402676 3.7510307 1.35
-0.74402666 3.7511899 1.35
-0.64418602 3.651031 1.35
-0.74418592 3.6511903 1.35
-0.54418617 3.6508718 1.45
-0.44418627 3.6507125 1.55
-0.54418617 3.6508718 1.55
-0.64402676 3.7510307 1.45
-0.74402666 3.7511899 1.45
-0.64418602 3.651031 1.45
-0.74418592 3.6511903 1.45
-0.64402676 3.7510307 1.55
-0.74402666 3.7511899 1.55
-0.64418602 3.651031 1.55
-0.74418592 3.6511903 1.55
-0.34482345 3.2505536 1.35
-0.34482345 3.2505536 1.45
-0.34466419 3.3505533 1.55
-0.34482345 3.2505536 1.55
-0.44434553 3.5507123 1.25
-0.54434544 3.5508716 1.25
-0.4445048 3.4507127 1.25
-0.5445047 3.4508719 1.25
-0.44434553 3.5507123 1.35
-0.54434544 3.5508716 1.35
-0.4445048 3.4507127 1.35
-0.5445047 3.4508719 1.35
-0.64434528 3.5510309 1.25
-0.74434519 3.5511901 1.25
-0.74450445 3.4511905 1.25
-0.64434528 3.5510309 1.35
-0.74450445 3.4511905 1.35
-0.44466406 3.3507125 1.25
-0.54466397 3.3508718 1.25
-0.44482332 3.2507129 1.25
-0.44466406 3.3507125 1.35
-0.54466397 3.3508718 1.35
-0.44482332 3.2507129 1.35
-0.74466372 3.3511903 1.25
-0.74482298 3.2511907 1.25
-0.64466381 3.3510311 1.35
-0.74466372 3.3511903 1.35
-0.74482298 3.2511907 1.35
-0.44434553 3.5507123 1.45
-0.54434544 3.5508716 1.45
-0.4445048 3.4507127 1.45
-0.5445047 3.4508719 1.45
-0.44434553 3.5507123 1.55
-0.54434544 3.5508716 1.55
-0.4445048 3.4507127 1.55
-0.5445047 3.4508719 1.55
-0.64434528 3.5510309 1.45
-0.74450445 3.4511905 1.45
-0.64434528 3.5510309 1.55
-0.74450445 3.4511905 1.55
-0.44466406 3.3507125 1.45
-0.54466397 3.3508718 1.45
-0.44482332 3.2507129 1.45
-0.44466406 3.3507125 1.55
-0.54466397 3.3508718 1.55
-0.44482332 3.2507129 1.55
-0.64466381 3.3510311 1.45
-0.74466372 3.3511903 1.45
-0.74482298 3.2511907 1.45
-0.74466372 3.3511903 1.55
-0.74482298 3.2511907 1.55
-0.84370804 3.951349 0.85000002
-0.94370788 3.9515083 0.85000002
-0.8438673 3.8513491 0.85000002
-0.94386715 3.8515084 0.85000002
-0.84370804 3.951349 0.94999999
-0.94370788 3.9515083 0.94999999
-0.8438673 3.8513491 0.94999999
-0.94386715 3.8515084 0.94999999
-1.0437077 3.9516675 0.85000002
-1.1437076 3.9518268 0.85000002
-1.043867 3.8516676 0.85000002
-1.1438669 3.8518269 0.85000002
-1.0437077 3.9516675 0.94999999
-1.1437076 3.9518268 0.94999999
-1.043867 3.8516676 0.94999999
-1.1438669 3.8518269 0.94999999
-0.84402657 3.7513492 0.85000002
-0.94402641 3.7515085 0.85000002
-0.84418583 3.6513495 0.85000002
-0.94418567 3.6515088 0.85000002
-0.84402657 3.7513492 0.94999999
-0.94402641 3.7515085 0.94999999
-0.84418583 3.6513495 0.94999999
-0.94418567 3.6515088 0.94999999
-1.0440263 3.7516677 0.85000002
-1.1440262 3.751827 0.85000002
-1.0440263 3.7516677 0.94999999
-1.1440262 3.751827 0.94999999
-0.84370804 3.951349 1.05
-0.94370788 3.9515083 1.05
-0.8438673 3.8513491 1.05
-0.94386715 3.8515084 1.05
-0.84370804 3.951349 1.15
-0.94370788 3.9515083 1.15
-0.8438673 3.8513491 1.15
-0.94386715 3.8515084 1.15
-1.0437077 3.9516675 1.05
-1.1437076 3.9518268 1.05
-1.043867 3.8516676 1.05
-1.1438669 3.8518269 1.05
-1.0437077 3.9516675 1.15
-1.1437076 3.9518268 1.15
-1.043867 3.8516676 1.15
-1.1438669 3.8518269 1.15
-0.84402657 3.7513492 1.05
-0.94402641 3.7515085 1.05
-0.84418583 3.6513495 1.05
-0.94418567 3.6515088 1.05
-0.84402657 3.7513492 1.15
-0.94402641 3.7515085 1.15
-0.84418583 3.6513495 1.15
-0.94418567 3.6515088 1.15
-1.0440263 3.7516677 1.05
-1.1440262 3.751827 1.05
-1.0440263 3.7516677 1.15
-1.1440262 3.751827 1.15
-1.293787 3.9020658 0.89999998
-1.4437072 3.9523046 0.85000002
-1.5437071 3.9524639 0.85000002
-1.4438665 3.8523047 0.85000002
-1.5438664 3.852464 0.85000002
-1.4437072 3.9523046 0.94999999
-1.5437071 3.9524639 0.94999999
-1.4438665 3.8523047 0.94999999
-1.5438664 3.852464 0.94999999
-1.2440261 3.7519863 0.85000002
-1.3440259 3.7521455 0.85000002
-1.3441851 3.6521459 0.85000002
-1.2440261 3.7519863 0.94999999
-1.3440259 3.7521455 0.94999999
-1.3441851 3.6521459 0.94999999
-1.4440258 3.7523048 0.85000002
-1.5440257 3.7524641 0.85000002
-1.444185 3.6523051 0.85000002
-1.5441849 3.6524644 0.85000002
-1.4440258 3.7523048 0.94999999
-1.5440257 3.7524641 0.94999999
-1.444185 3.6523051 0.94999999
-1.2437075 3.9519861 1.05
-1.3437073 3.9521453 1.05
-1.2438668 3.8519862 1.05
-1.3438666 3.8521454 1.05
-1.2437075 3.9519861 1.15
-1.3437073 3.9521453 1.15
-1.2438668 3.8519862 1.15
-1.3438666 3.8521454 1.15
-1.4437072 3.9523046 1.05
-1.5437071 3.9524639 1.05
-1.4438665 3.8523047 1.05
-1.5438664 3.852464 1.05
-1.4437072 3.9523046 1.15
-1.5437071 3.9524639 1.15
-1.4438665 3.8523047 1.15
-1.5438664 3.852464 1.15
-1.3440259 3.7521455 1.05
-1.3441851 3.6521459 1.05
-1.2440261 3.7519863 1.15
-1.3440259 3.7521455 1.15
-1.3441851 3.6521459 1.15
-1.4440258 3.7523048 1.05
-1.5440257 3.7524641 1.05
-1.444185 3.6523051 1.05
-1.5441849 3.6524644 1.05
-1.4440258 3.7523048 1.15
-1.5440257 3.7524641 1.15
-1.5441849 3.6524644 1.15
-0.84434509 3.5513494 0.94999999
-0.84434509 3.5513494 1.05
-0.84434509 3.5513494 1.15
-1.3443444 3.5521457 0.85000002
-1.3445038 3.4521461 0.85000002
-1.3443444 3.5521457 0.94999999
-1.3445038 3.4521461 0.94999999
-1.4443443 3.552305 0.94999999
-1.5443442 3.5524642 0.94999999
-1.4445037 3.4523053 0.94999999
-1.5445036 3.4524646 0.94999999
-1.344663 3.3521459 0.85000002
-1.3448223 3.2521462 0.85000002
-1.344663 3.3521459 0.94999999
-1.3448223 3.2521462 0.94999999
-1.5446628 3.3524644 0.85000002
-1.4446629 3.3523052 0.94999999
-1.5446628 3.3524644 0.94999999
-1.4448222 3.2523055 0.94999999
-1.5448221 3.2524648 0.94999999
-1.3443444 3.5521457 1.05
-1.3445038 3.4521461 1.05
-1.3443444 3.5521457 1.15
-1.3445038 3.4521461 1.15
-1.5445036 3.4524646 1.05
-1.5443442 3.5524642 1.15
-1.4445037 3.4523053 1.15
-1.5445036 3.4524646 1.15
-1.344663 3.3521459 1.05
-1.3448223 3.2521462 1.05
-1.4446629 3.3523052 1.05
-1.4448222 3.2523055 1.05
-1.4446629 3.3523052 1.15
-1.5446628 3.3524644 1.15
-1.4448222 3.2523055 1.15
-1.5448221 3.2524648 1.15
-0.94370788 3.9515083 1.25
-0.8438673 3.8513491 1.25
-0.94386715 3.8515084 1.25
-0.94370788 3.9515083 1.35
-0.8438673 3.8513491 1.35
-0.94386715 3.8515084 1.35
-1.0437077 3.9516675 1.25
-1.1437076 3.9518268 1.25
-1.043867 3.8516676 1.25
-1.1438669 3.8518269 1.25
-1.0437077 3.9516675 1.35
-1.1437076 3.9518268 1.35
-1.043867 3.8516676 1.35
-1.1438669 3.8518269 1.35
-0.84402657 3.7513492 1.25
-0.94402641 3.7515085 1.25
-0.84418583 3.6513495 1.25
-0.94418567 3.6515088 1.25
-0.84402657 3.7513492 1.35
-0.94402641 3.7515085 1.35
-0.94418567 3.6515088 1.35
-1.0440263 3.7516677 1.25
-1.1440262 3.751827 1.25
-1.0441855 3.6516681 1.25
-1.0440263 3.7516677 1.35
-1.0441855 3.6516681 1.35
-1.1441854 3.6518273 1.35
-0.8438673 3.8513491 1.45
-0.94386715 3.8515084 1.45
-0.94370788 3.9515083 1.55
-0.94386715 3.8515084 1.55
-1.0437077 3.9516675 1.45
-1.1437076 3.9518268 1.45
-1.043867 3.8516676 1.45
-1.1438669 3.8518269 1.45
-1.0437077 3.9516675 1.55
-1.1437076 3.9518268 1.55
-1.043867 3.8516676 1.55
-1.1438669 3.8518269 1.55
-0.84402657 3.7513492 1.45
-0.94402641 3.7515085 1.45
-0.84418583 3.6513495 1.45
-0.94418567 3.6515088 1.45
-0.84402657 3.7513492 1.55
-0.94402641 3.7515085 1.55
-0.84418583 3.6513495 1.55
-0.94418567 3.6515088 1.55
-1.0440263 3.7516677 1.45
-1.0441855 3.6516681 1.45
-1.1441854 3.6518273 1.45
-1.0440263 3.7516677 1.55
-1.1440262 3.751827 1.55
-1.0441855 3.6516681 1.55
-1.1441854 3.6518273 1.55
-1.293787 3.9020658 1.3
-1.4437072 3.9523046 1.25
-1.5437071 3.9524639 1.25
-1.4438665 3.8523047 1.25
-1.5438664 3.852464 1.25
-1.4437072 3.9523046 1.35
-1.5437071 3.9524639 1.35
-1.4438665 3.8523047 1.35
-1.5438664 3.852464 1.35
-1.2440261 3.7519863 1.25
-1.3440259 3.7521455 1.25
-1.3441851 3.6521459 1.25
-1.2440261 3.7519863 1.35
-1.3440259 3.7521455 1.35
-1.2441853 3.6519866 1.35
-1.3441851 3.6521459 1.35
-1.444185 3.6523051 1.25
-1.5441849 3.6524644 1.25
-1.4440258 3.7523048 1.35
-1.5440257 3.7524641 1.35
-1.5441849 3.6524644 1.35
-1.2437075 3.9519861 1.45
-1.3437073 3.9521453 1.45
-1.2438668 3.8519862 1.45
-1.3438666 3.8521454 1.45
-1.2437075 3.9519861 1.55
-1.3437073 3.9521453 1.55
-1.2438668 3.8519862 1.55
-1.3438666 3.8521454 1.55
-1.4937868 3.9023843 1.5
-1.2440261 3.7519863 1.45
-1.3440259 3.7521455 1.45
-1.2441853 3.6519866 1.45
-1.3441851 3.6521459 1.45
-1.2440261 3.7519863 1.55
-1.3440259 3.7521455 1.55
-1.2441853 3.6519866 1.55
-1.3441851 3.6521459 1.55
-1.4440258 3.7523048 1.45
-1.5440257 3.7524641 1.45
-1.5441849 3.6524644 1.45
-1.4440258 3.7523048 1.55
-1.5440257 3.7524641 1.55
-1.444185 3.6523051 1.55
-1.5441849 3.6524644 1.55
-0.84434509 3.5513494 1.25
-0.94434494 3.5515087 1.25
-0.84450436 3.4513497 1.25
-0.9445042 3.451509 1.25
-0.84434509 3.5513494 1.35
-0.94434494 3.5515087 1.35
-1.0443448 3.5516679 1.35
-0.84434509 3.5513494 1.45
-0.94434494 3.5515087 1.45
-0.84434509 3.5513494 1.55
-0.94434494 3.5515087 1.55
-1.0443448 3.5516679 1.55
-1.5443442 3.5524642 1.55
-1.5445036 3.4524646 1.55
-1.344663 3.3521459 1.45
-1.5448221 3.2524648 1.55
-1.6435478 4.0526233 0.050000001
-1.6432292 4.2526226 0.25
-1.6432292 4.2526226 0.34999999
-1.6435478 4.0526233 0.25
-1.6435478 4.0526233 0.34999999
-1.7435476 4.0527825 0.34999999
-2.0435474 4.0532603 0.34999999
-1.6432292 4.2526226 0.44999999
-1.6435478 4.0526233 0.44999999
-1.7435476 4.0527825 0.44999999
-1.6435478 4.0526233 0.55000001
-1.7435476 4.0527825 0.55000001
-1.6435478 4.0526233 0.64999998
-1.7435476 4.0527825 0.64999998
-1.6435478 4.0526233 0.75
-1.7435476 4.0527825 0.75
-1.8435475 4.0529418 0.64999998
-1.8435475 4.0529418 0.75
-1.643707 3.9526231 0.050000001
-1.7437068 3.9527824 0.050000001
-1.6438663 3.8526232 0.050000001
-1.7438661 3.8527825 0.050000001
-1.643707 3.9526231 0.15000001
-1.7437068 3.9527824 0.15000001
-1.6438663 3.8526232 0.15000001
-1.9437066 3.9531009 0.050000001
-1.843866 3.8529418 0.050000001
-1.9438659 3.853101 0.050000001
-1.8437067 3.9529417 0.15000001
-1.9437066 3.9531009 0.15000001
-1.843866 3.8529418 0.15000001
-1.9438659 3.853101 0.15000001
-1.6440256 3.7526233 0.050000001
-1.7440253 3.7527826 0.050000001
-1.6441848 3.6526237 0.050000001
-1.7441846 3.6527829 0.050000001
-1.7440253 3.7527826 0.15000001
-1.6441848 3.6526237 0.15000001
-1.7441846 3.6527829 0.15000001
-1.8440253 3.7529418 0.050000001
-1.9440252 3.7531011 0.050000001
-1.8441845 3.6529422 0.050000001
-1.9441844 3.6531014 0.050000001
-1.8440253 3.7529418 0.15000001
-1.9440252 3.7531011 0.15000001
-1.8441845 3.6529422 0.15000001
-1.9441844 3.6531014 0.15000001
-1.643707 3.9526231 0.25
-1.7437068 3.9527824 0.25
-1.6438663 3.8526232 0.25
-1.7438661 3.8527825 0.25
-1.643707 3.9526231 0.34999999
-1.7437068 3.9527824 0.34999999
-1.7438661 3.8527825 0.34999999
-1.8437067 3.9529417 0.25
-1.9437066 3.9531009 0.25
-1.843866 3.8529418 0.25
-1.9438659 3.853101 0.25
-1.8437067 3.9529417 0.34999999
-1.9437066 3.9531009 0.34999999
-1.843866 3.8529418 0.34999999
-1.9438659 3.853101 0.34999999
-1.6440256 3.7526233 0.25
-1.7440253 3.7527826 0.25
-1.6441848 3.6526237 0.25
-1.7441846 3.6527829 0.25
-1.6440256 3.7526233 0.34999999
-1.7440253 3.7527826 0.34999999
-1.6441848 3.6526237 0.34999999
-1.7441846 3.6527829 0.34999999
-1.9440252 3.7531011 0.25
-1.9441844 3.6531014 0.25
-1.8440253 3.7529418 0.34999999
-1.9440252 3.7531011 0.34999999
-1.8441845 3.6529422 0.34999999
-1.9441844 3.6531014 0.34999999
-2.0438659 3.8532603 0.15000001
-2.0441844 3.6532607 0.050000001
-2.0440252 3.7532604 0.15000001
-2.0441844 3.6532607 0.15000001
-2.0437067 3.9532602 0.25
-2.0438659 3.8532603 0.25
-2.0437067 3.9532602 0.34999999
-2.0438659 3.8532603 0.34999999
-2.0440252 3.7532604 0.25
-2.0441844 3.6532607 0.25
-2.0440252 3.7532604 0.34999999
-2.0441844 3.6532607 0.34999999
-1.6443441 3.5526235 0.050000001
-1.7443439 3.5527828 0.050000001
-1.6445035 3.4526238 0.050000001
-1.7445033 3.4527831 0.050000001
-1.6443441 3.5526235 0.15000001
-1.7443439 3.5527828 0.15000001
-1.6445035 3.4526238 0.15000001
-1.7445033 3.4527831 0.15000001
-1.8944235 3.5030217 0.1
-1.6446627 3.3526237 0.15000001
-1.7446625 3.352783 0.15000001
-1.7448218 3.2527833 0.15000001
-1.8446624 3.3529422 0.050000001
-1.9446623 3.3531015 0.050000001
-1.8448217 3.2529426 0.050000001
-1.9448216 3.2531018 0.050000001
-1.8446624 3.3529422 0.15000001
-1.9446623 3.3531015 0.15000001
-1.8448217 3.2529426 0.15000001
-1.9448216 3.2531018 0.15000001
-1.6443441 3.5526235 0.25
-1.7443439 3.5527828 0.25
-1.6443441 3.5526235 0.34999999
-1.7443439 3.5527828 0.34999999
-1.6445035 3.4526238 0.34999999
-1.7445033 3.4527831 0.34999999
-1.9443437 3.5531013 0.25
-1.8445032 3.4529424 0.25
-1.9445031 3.4531016 0.25
-1.8443438 3.552942 0.34999999
-1.9443437 3.5531013 0.34999999
-1.8445032 3.4529424 0.34999999
-1.9445031 3.4531016 0.34999999
-1.6446627 3.3526237 0.25
-1.644822 3.252624 0.25
-1.6446627 3.3526237 0.34999999
-1.7446625 3.352783 0.34999999
-1.7448218 3.2527833 0.34999999
-1.8446624 3.3529422 0.25
-1.9446623 3.3531015 0.25
-1.9448216 3.2531018 0.25
-1.8446624 3.3529422 0.34999999
-1.9446623 3.3531015 0.34999999
-1.8448217 3.2529426 0.34999999
-1.9448216 3.2531018 0.34999999
-2.0443437 3.5532606 0.050000001
-2.1443436 3.5534198 0.050000001
-2.044503 3.4532609 0.050000001
-2.1445029 3.4534202 0.050000001
-2.0443437 3.5532606 0.15000001
-2.044503 3.4532609 0.15000001
-2.1445029 3.4534202 0.15000001
-2.0446622 3.3532608 0.050000001
-2.0448215 3.2532611 0.050000001
-2.0446622 3.3532608 0.15000001
-2.1446621 3.35342 0.15000001
-2.0448215 3.2532611 0.15000001
-2.1448214 3.2534204 0.15000001
-2.0443437 3.5532606 0.25
-2.044503 3.4532609 0.25
-2.1445029 3.4534202 0.25
-2.0443437 3.5532606 0.34999999
-2.044503 3.4532609 0.34999999
-2.1445029 3.4534202 0.34999999
-2.2445028 3.4535794 0.25
-2.3445024 3.4537387 0.34999999
-2.0446622 3.3532608 0.25
-2.1446621 3.35342 0.25
-2.0448215 3.2532611 0.25
-2.1448214 3.2534204 0.25
-2.0446622 3.3532608 0.34999999
-2.1446621 3.35342 0.34999999
-2.0448215 3.2532611 0.34999999
-2.1448214 3.2534204 0.34999999
-2.244662 3.3535793 0.25
-2.3446617 3.3537385 0.25
-2.2448213 3.2535796 0.25
-2.244662 3.3535793 0.34999999
-2.3446617 3.3537385 0.34999999
-2.2448213 3.2535796 0.34999999
-2.344821 3.2537389 0.34999999
-1.643707 3.9526231 0.44999999
-1.7437068 3.9527824 0.44999999
-1.6438663 3.8526232 0.44999999
-1.7438661 3.8527825 0.44999999
-1.643707 3.9526231 0.55000001
-1.7437068 3.9527824 0.55000001
-1.6438663 3.8526232 0.55000001
-1.7438661 3.8527825 0.55000001
-1.8437067 3.9529417 0.44999999
-1.9437066 3.9531009 0.44999999
-1.843866 3.8529418 0.44999999
-1.9438659 3.853101 0.44999999
-1.8437067 3.9529417 0.55000001
-1.9437066 3.9531009 0.55000001
-1.843866 3.8529418 0.55000001
-1.9438659 3.853101 0.55000001
-1.6440256 3.7526233 0.44999999
-1.7440253 3.7527826 0.44999999
-1.6441848 3.6526237 0.44999999
-1.6440256 3.7526233 0.55000001
-1.7440253 3.7527826 0.55000001
-1.6441848 3.6526237 0.55000001
-1.9440252 3.7531011 0.44999999
-1.9441844 3.6531014 0.44999999
-1.9440252 3.7531011 0.55000001
-1.9441844 3.6531014 0.55000001
-1.643707 3.9526231 0.64999998
-1.7437068 3.9527824 0.64999998
-1.6438663 3.8526232 0.64999998
-1.7438661 3.8527825 0.64999998
-1.643707 3.9526231 0.75
-1.7437068 3.9527824 0.75
-1.6438663 3.8526232 0.75
-1.7438661 3.8527825 0.75
-1.8937863 3.9030213 0.69999999
-1.6440256 3.7526233 0.64999998
-1.7440253 3.7527826 0.64999998
-1.6441848 3.6526237 0.64999998
-1.6440256 3.7526233 0.75
-1.7440253 3.7527826 0.75
-1.6441848 3.6526237 0.75
-1.9440252 3.7531011 0.64999998
-1.9441844 3.6531014 0.64999998
-1.9440252 3.7531011 0.75
-1.9441844 3.6531014 0.75
-2.0437067 3.9532602 0.44999999
-2.0438659 3.8532603 0.44999999
-2.0437067 3.9532602 0.55000001
-2.0438659 3.8532603 0.55000001
-2.0440252 3.7532604 0.44999999
-2.0441844 3.6532607 0.44999999
-2.0440252 3.7532604 0.55000001
-2.0441844 3.6532607 0.55000001
-2.0437067 3.9532602 0.64999998
-2.0438659 3.8532603 0.64999998
-2.0437067 3.9532602 0.75
-2.0438659 3.8532603 0.75
-2.0440252 3.7532604 0.64999998
-2.0441844 3.6532607 0.64999998
-2.0440252 3.7532604 0.75
-2.0441844 3.6532607 0.75
-1.6443441 3.5526235 0.55000001
-1.9443437 3.5531013 0.44999999
-1.9445031 3.4531016 0.44999999
-1.9443437 3.5531013 0.55000001
-1.9445031 3.4531016 0.55000001
-1.9446623 3.3531015 0.44999999
-1.9448216 3.2531018 0.44999999
-1.9446623 3.3531015 0.55000001
-1.6443441 3.5526235 0.64999998
-1.6443441 3.5526235 0.75
-1.9443437 3.5531013 0.64999998
-1.9445031 3.4531016 0.64999998
-1.9445031 3.4531016 0.75
-1.9446623 3.3531015 0.64999998
-1.9446623 3.3531015 0.75
-2.0443437 3.5532606 0.44999999
-2.1443436 3.5534198 0.44999999
-2.044503 3.4532609 0.44999999
-2.1445029 3.4534202 0.44999999
-2.0443437 3.5532606 0.55000001
-2.044503 3.4532609 0.55000001
-2.1445029 3.4534202 0.55000001
-2.2445028 3.4535794 0.44999999
-2.2445028 3.4535794 0.55000001
-2.0947418 3.3033407 0.5
-2.244662 3.3535793 0.44999999
-2.3446617 3.3537385 0.44999999
-2.2448213 3.2535796 0.44999999
-2.344821 3.2537389 0.44999999
-2.244662 3.3535793 0.55000001
-2.2448213 3.2535796 0.55000001
-2.344821 3.2537389 0.55000001
-2.0443437 3.5532606 0.64999998
-2.044503 3.4532609 0.64999998
-2.1445029 3.4534202 0.64999998
-2.0443437 3.5532606 0.75
-2.044503 3.4532609 0.75
-2.1445029 3.4534202 0.75
-2.2445028 3.4535794 0.64999998
-2.2445028 3.4535794 0.75
-2.0446622 3.3532608 0.64999998
-2.1446621 3.35342 0.64999998
-2.0448215 3.2532611 0.64999998
-2.1448214 3.2534204 0.64999998
-2.0446622 3.3532608 0.75
-2.1446621 3.35342 0.75
-2.0448215 3.2532611 0.75
-2.1448214 3.2534204 0.75
-2.244662 3.3535793 0.64999998
-2.3446617 3.3537385 0.64999998
-2.2448213 3.2535796 0.64999998
-2.344821 3.2537389 0.64999998
-2.244662 3.3535793 0.75
-2.3446617 3.3537385 0.75
-2.2448213 3.2535796 0.75
-2.344821 3.2537389 0.75
-1.6435478 4.0526233 0.94999999
-1.7435476 4.0527825 0.94999999
-1.6435478 4.0526233 1.05
-1.7435476 4.0527825 1.05
-1.7435476 4.0527825 1.15
-1.6435478 4.0526233 1.45
-1.6435478 4.0526233 1.55
-2.0435474 4.0532603 1.55
-1.643707 3.9526231 0.85000002
-1.7437068 3.9527824 0.85000002
-1.7438661 3.8527825 0.85000002
-1.643707 3.9526231 0.94999999
-1.7437068 3.9527824 0.94999999
-1.6438663 3.8526232 0.94999999
-1.7438661 3.8527825 0.94999999
-1.8437067 3.9529417 0.85000002
-1.9437066 3.9531009 0.85000002
-1.843866 3.8529418 0.85000002
-1.9438659 3.853101 0.85000002
-1.8437067 3.9529417 0.94999999
-1.9437066 3.9531009 0.94999999
-1.843866 3.8529418 0.94999999
-1.9438659 3.853101 0.94999999
-1.6440256 3.7526233 0.85000002
-1.7440253 3.7527826 0.85000002
-1.6441848 3.6526237 0.85000002
-1.6440256 3.7526233 0.94999999
-1.7440253 3.7527826 0.94999999
-1.6441848 3.6526237 0.94999999
-1.9440252 3.7531011 0.85000002
-1.9441844 3.6531014 0.85000002
-1.9440252 3.7531011 0.94999999
-1.9441844 3.6531014 0.94999999
-1.643707 3.9526231 1.05
-1.7437068 3.9527824 1.05
-1.6438663 3.8526232 1.05
-1.7438661 3.8527825 1.05
-1.643707 3.9526231 1.15
-1.7437068 3.9527824 1.15
-1.6438663 3.8526232 1.15
-1.7438661 3.8527825 1.15
-1.8937863 3.9030213 1.1
-1.7440253 3.7527826 1.05
-1.6441848 3.6526237 1.05
-1.6440256 3.7526233 1.15
-1.7440253 3.7527826 1.15
-1.7441846 3.6527829 1.15
-1.9440252 3.7531011 1.05
-1.9441844 3.6531014 1.05
-1.8440253 3.7529418 1.15
-1.9440252 3.7531011 1.15
-1.9441844 3.6531014 1.15
-2.0437067 3.9532602 0.85000002
-2.0438659 3.8532603 0.85000002
-2.0437067 3.9532602 0.94999999
-2.0438659 3.8532603 0.94999999
-2.0440252 3.7532604 0.85000002
-2.0441844 3.6532607 0.85000002
-2.0440252 3.7532604 0.94999999
-2.0441844 3.6532607 0.94999999
-2.0437067 3.9532602 1.05
-2.0438659 3.8532603 1.05
-2.0437067 3.9532602 1.15
-2.0438659 3.8532603 1.15
-2.0440252 3.7532604 1.05
-2.0441844 3.6532607 1.05
-2.0440252 3.7532604 1.15
-1.6443441 3.5526235 0.94999999
-1.9445031 3.4531016 0.85000002
-1.9445031 3.4531016 0.94999999
-1.7448218 3.2527833 0.94999999
-1.9446623 3.3531015 0.85000002
-1.9446623 3.3531015 0.94999999
-1.8448217 3.2529426 0.94999999
-1.9448216 3.2531018 0.94999999
-1.6443441 3.5526235 1.05
-1.6445035 3.4526238 1.15
-1.7445033 3.4527831 1.15
-1.9443437 3.5531013 1.05
-1.8445032 3.4529424 1.05
-1.9445031 3.4531016 1.05
-1.7446625 3.352783 1.05
-1.7448218 3.2527833 1.05
-1.6446627 3.3526237 1.15
-1.644822 3.252624 1.15
-1.8446624 3.3529422 1.05
-1.9446623 3.3531015 1.05
-1.8448217 3.2529426 1.05
-2.0443437 3.5532606 0.85000002
-2.044503 3.4532609 0.85000002
-2.1445029 3.4534202 0.85000002
-2.044503 3.4532609 0.94999999
-2.0446622 3.3532608 0.85000002
-2.1446621 3.35342 0.85000002
-2.0448215 3.2532611 0.85000002
-2.1448214 3.2534204 0.85000002
-2.0446622 3.3532608 0.94999999
-2.0448215 3.2532611 0.94999999
-2.1448214 3.2534204 0.94999999
-2.2448213 3.2535796 0.85000002
-2.2448213 3.2535796 0.94999999
-2.0443437 3.5532606 1.05
-1.643707 3.9526231 1.25
-1.7437068 3.9527824 1.25
-1.6438663 3.8526232 1.25
-1.7438661 3.8527825 1.25
-1.643707 3.9526231 1.35
-1.7437068 3.9527824 1.35
-1.6438663 3.8526232 1.35
-1.7438661 3.8527825 1.35
-1.8437067 3.9529417 1.25
-1.9437066 3.9531009 1.25
-1.843866 3.8529418 1.25
-1.9438659 3.853101 1.25
-1.8437067 3.9529417 1.35
-1.9437066 3.9531009 1.35
-1.843866 3.8529418 1.35
-1.9438659 3.853101 1.35
-1.6440256 3.7526233 1.25
-1.7440253 3.7527826 1.25
-1.7441846 3.6527829 1.25
-1.6440256 3.7526233 1.35
-1.7440253 3.7527826 1.35
-1.8440253 3.7529418 1.25
-1.9440252 3.7531011 1.25
-1.8441845 3.6529422 1.25
-1.8440253 3.7529418 1.35
-1.9440252 3.7531011 1.35
-1.8441845 3.6529422 1.35
-1.9441844 3.6531014 1.35
-1.643707 3.9526231 1.45
-1.7437068 3.9527824 1.45
-1.6438663 3.8526232 1.45
-1.7438661 3.8527825 1.45
-1.643707 3.9526231 1.55
-1.6438663 3.8526232 1.55
-1.7438661 3.8527825 1.55
-1.8437067 3.9529417 1.45
-1.9437066 3.9531009 1.45
-1.843866 3.8529418 1.45
-1.9438659 3.853101 1.45
-1.8437067 3.9529417 1.55
-1.9437066 3.9531009 1.55
-1.843866 3.8529418 1.55
-1.9438659 3.853101 1.55
-1.6440256 3.7526233 1.45
-1.7440253 3.7527826 1.45
-1.6440256 3.7526233 1.55
-1.7440253 3.7527826 1.55
-1.6441848 3.6526237 1.55
-1.9440252 3.7531011 1.45
-1.9441844 3.6531014 1.45
-1.9440252 3.7531011 1.55
-1.9441844 3.6531014 1.55
-2.0437067 3.9532602 1.35
-2.0438659 3.8532603 1.35
-2.0440252 3.7532604 1.35
-2.0441844 3.6532607 1.35
-2.0437067 3.9532602 1.45
-2.0438659 3.8532603 1.45
-2.0437067 3.9532602 1.55
-2.1437066 3.9534194 1.55
-2.0438659 3.8532603 1.55
-2.1438658 3.8534195 1.55
-2.0440252 3.7532604 1.45
-2.0441844 3.6532607 1.45
-2.1441844 3.65342 1.45
-2.0440252 3.7532604 1.55
-2.1440251 3.7534196 1.55
-2.0441844 3.6532607 1.55
-1.6443441 3.5526235 1.25
-1.7443439 3.5527828 1.25
-1.7445033 3.4527831 1.25
-1.8443438 3.552942 1.25
-1.9443437 3.5531013 1.25
-1.8445032 3.4529424 1.25
-1.9445031 3.4531016 1.25
-1.9445031 3.4531016 1.35
-1.8446624 3.3529422 1.25
-1.9446623 3.3531015 1.25
-1.8448217 3.2529426 1.25
-1.9448216 3.2531018 1.25
-1.9446623 3.3531015 1.35
-1.9443437 3.5531013 1.55
-1.9446623 3.3531015 1.55
-1.9448216 3.2531018 1.55
-2.0443437 3.5532606 1.35
-2.1443436 3.5534198 1.35
-2.044503 3.4532609 1.35
-2.1445029 3.4534202 1.35
-2.0448215 3.2532611 1.25
-2.0446622 3.3532608 1.35
-2.1446621 3.35342 1.35
-2.0448215 3.2532611 1.35
-2.1448214 3.2534204 1.35
-2.244662 3.3535793 1.35
-2.2448213 3.2535796 1.35
-2.0443437 3.5532606 1.45
-2.1443436 3.5534198 1.45
-2.044503 3.4532609 1.45
-2.1445029 3.4534202 1.45
-2.0443437 3.5532606 1.55
-2.1443436 3.5534198 1.55
-2.044503 3.4532609 1.55
-2.1445029 3.4534202 1.55
-2.2445028 3.4535794 1.45
-2.2445028 3.4535794 1.55
-2.0446622 3.3532608 1.45
-2.1446621 3.35342 1.45
-2.0448215 3.2532611 1.45
-2.1448214 3.2534204 1.45
-2.0446622 3.3532608 1.55
-2.1446621 3.35342 1.55
-2.0448215 3.2532611 1.55
-2.1448214 3.2534204 1.55
-2.244662 3.3535793 1.45
-2.2448213 3.2535796 1.45
-1.5413182 5.4524617 1.65
-1.5414774 5.3524623 1.85
-1.4416368 5.2523031 1.85
-1.3416369 5.2521439 2.1500001
-1.4416368 5.2523031 2.1500001
-1.5413182 5.4524617 2.25
-1.3416369 5.2521439 2.25
-1.4414775 5.352303 2.25
-1.5414774 5.3524623 2.25
-1.4416368 5.2523031 2.25
-1.4414775 5.352303 2.3499999
-1.5414774 5.3524623 2.3499999
-1.4416368 5.2523031 2.3499999
-1.1419557 5.0518255 2.1500001
-0.94227451 4.8515072 2.05
-0.94227451 4.8515072 2.1500001
-1.0421151 4.9516664 2.1500001
-1.0419558 5.0516663 2.25
-1.1419557 5.0518255 2.25
-0.94227451 4.8515072 2.25
-1.0421151 4.9516664 2.25
-1.2419556 5.0519848 2.05
-1.2417964 5.1519847 2.1500001
-1.3417962 5.152144 2.1500001
-1.2417964 5.1519847 2.25
-1.2417964 5.1519847 2.3499999
-1.2419556 5.0519848 2.3499999
-0.54163796 5.2508698 2.75
-0.34211594 4.9505515 2.55
-1.2422742 4.851985 2.75
-1.3421147 4.9521441 2.8499999
-2.3403616 6.0537357 1.65
-2.3402023 6.1537356 1.85
-2.3403616 6.0537357 1.95
-1.8409992 5.6529398 1.65
-1.9409992 5.6530991 1.65
-1.9409992 5.6530991 1.75
-1.9408399 5.753099 1.85
-1.8409992 5.6529398 1.85
-1.9408399 5.753099 1.95
-1.8409992 5.6529398 1.95
-1.9409992 5.6530991 1.95
-2.1406806 5.8534169 1.65
-2.2406805 5.8535762 1.65
-2.3405209 5.9537354 1.75
-2.0408399 5.7532582 1.65
-2.1408398 5.7534175 1.65
-2.1408398 5.7534175 1.75
-2.0409992 5.6532583 1.75
-2.1409991 5.6534176 1.75
-2.1406806 5.8534169 1.95
-2.2406805 5.8535762 1.85
-2.3406801 5.8537354 1.85
-2.2405212 5.9535761 1.95
-2.2406805 5.8535762 1.95
-2.1408398 5.7534175 1.85
-2.0409992 5.6532583 1.85
-2.0408399 5.7532582 1.95
-1.9409992 5.6530991 2.25
-1.8409992 5.6529398 2.3499999
-1.9409992 5.6530991 2.3499999
-2.0408399 5.7532582 2.05
-2.1406806 5.8534169 2.3499999
-2.3405209 5.9537354 2.3499999
-2.2406805 5.8535762 2.3499999
-2.0408399 5.7532582 2.25
-2.0408399 5.7532582 2.3499999
-2.640043 6.2542129 1.65
-2.7398834 6.354372 1.75
-2.640043 6.2542129 1.75
-2.4403617 6.053895 1.65
-2.4403617 6.053895 1.75
-2.5403614 6.0540543 1.75
-2.6402023 6.1542134 1.65
-2.4400432 6.2538943 1.85
-2.5400429 6.2540536 1.85
-2.5400429 6.2540536 1.95
-2.6398838 6.3542128 1.85
-2.6398838 6.3542128 1.95
-2.7398834 6.354372 1.95
-2.7400427 6.2543721 1.95
-2.5403614 6.0540543 1.85
-2.4402025 6.1538949 1.95
-2.5402021 6.1540542 1.95
-2.4403617 6.053895 1.95
-2.8398833 6.3545313 1.65
-2.8398833 6.3545313 1.75
-2.8398833 6.3545313 1.85
-2.9398832 6.3546906 1.85
-2.8400426 6.2545314 1.85
-2.8398833 6.3545313 1.95
-2.440521 5.9538946 1.65
-2.5400429 6.2540536 2.05
-2.4402025 6.1538949 2.05
-1.7413179 5.4527802 1.65
-1.6411588 5.5526214 1.75
-1.7411586 5.5527806 1.75
-1.8411585 5.5529399 1.65
-1.8411585 5.5529399 1.75
-1.9411584 5.5530992 1.75
-1.8413178 5.4529395 1.75
-1.7411586 5.5527806 1.85
-1.6413181 5.452621 1.85
-1.8411585 5.5529399 1.85
-1.9411584 5.5530992 1.85
-1.6413181 5.452621 2.1500001
-1.7411586 5.5527806 2.25
-1.6413181 5.452621 2.25
-1.7413179 5.4527802 2.25
-1.7411586 5.5527806 2.3499999
-1.6413181 5.452621 2.3499999
-1.7413179 5.4527802 2.3499999
-1.8411585 5.5529399 2.25
-1.8411585 5.5529399 2.3499999
-1.9408399 5.753099 2.45
-1.9409992 5.6530991 2.45
-2.3405209 5.9537354 2.75
-1.6413181 5.452621 2.45
-1.7413179 5.4527802 2.45
-1.8411585 5.5529399 2.45
-0.5427528 4.5508709 1.95
-0.64275265 4.5510302 1.95
-0.14323105 4.2502337 1.95
-0.34307155 4.3505521 1.95
-0.043549698 4.0500751 1.85
-0.14339031 4.1502342 1.95
-0.44307142 4.3507113 1.95
-0.74243402 4.7511888 2.05
-0.64259338 4.6510296 2.05
-0.74259329 4.6511889 2.05
-0.74243402 4.7511888 2.1500001
-0.64259338 4.6510296 2.1500001
-0.74259329 4.6511889 2.1500001
-0.5427528 4.5508709 2.05
-0.44291213 4.4507113 2.05
-0.54291207 4.4508705 2.1500001
-0.64275265 4.5510302 2.05
-0.24323092 4.2503929 2.05
-0.043549698 4.0500751 2.05
-0.14354958 4.0502343 2.05
-0.34354934 4.0505528 2.05
-0.44338995 4.150712 2.05
-0.84243393 4.751348 2.05
-0.84243393 4.751348 2.1500001
-0.94243377 4.7515073 2.25
-0.14370885 3.9502342 1.95
-0.14386812 3.8502343 1.95
-0.24370873 3.9503934 1.95
-0.044027492 3.7500751 1.95
-0.044186756 3.6500754 1.95
-0.7438674 3.8511899 1.75
-0.54402691 3.7508714 1.65
-0.44418627 3.6507125 1.65
-0.54418617 3.6508718 1.65
-0.54402691 3.7508714 1.75
-0.44418627 3.6507125 1.75
-0.54418617 3.6508718 1.75
-0.64402676 3.7510307 1.65
-0.74402666 3.7511899 1.65
-0.64418602 3.651031 1.65
-0.74418592 3.6511903 1.65
-0.64402676 3.7510307 1.75
-0.74402666 3.7511899 1.75
-0.64418602 3.651031 1.75
-0.7438674 3.8511899 1.95
-0.54402691 3.7508714 1.85
-0.54418617 3.6508718 1.85
-0.54402691 3.7508714 1.95
-0.44418627 3.6507125 1.95
-0.54418617 3.6508718 1.95
-0.64402676 3.7510307 1.85
-0.74402666 3.7511899 1.85
-0.64418602 3.651031 1.85
-0.74418592 3.6511903 1.85
-0.64402676 3.7510307 1.95
-0.74402666 3.7511899 1.95
-0.64418602 3.651031 1.95
-0.74418592 3.6511903 1.95
-0.1448237 3.2502351 1.75
-0.24466431 3.350394 1.65
-0.34466419 3.3505533 1.65
