# .PCD v0.7 - Point Cloud Data file format
VERSION 0.7
FIELDS x y z
SIZE 4 4 4
TYPE F F F
COUNT 1 1 1
WIDTH 1615
HEIGHT 1
VIEWPOINT 0 0 0 1 0 0 0
POINTS 1615
DATA ascii
5.845613 -2.7593136 2.3499999
5.7457728 -2.6591547 2.25
5.7456136 -2.7591543 2.25
5.7457728 -2.6591547 2.3499999
5.7456136 -2.7591543 2.3499999
6.045454 -2.859632 2.05
6.0452948 -2.9596319 2.05
6.0452948 -2.9596319 2.1500001
6.0449762 -3.1596317 2.05
6.0449762 -3.1596317 2.1500001
5.9454536 -2.8594728 2.05
5.8454537 -2.8593135 2.05
5.9452944 -2.9594727 2.05
5.8452945 -2.9593134 2.05
5.9454536 -2.8594728 2.1500001
5.8454537 -2.8593135 2.1500001
5.9452944 -2.9594727 2.1500001
5.8452945 -2.9593134 2.1500001
5.9451351 -3.0594726 2.05
5.8451352 -3.0593133 2.05
5.9449759 -3.1594725 2.05
5.8449759 -3.1593132 2.05
5.9451351 -3.0594726 2.1500001
5.8451352 -3.0593133 2.1500001
5.9449759 -3.1594725 2.1500001
5.8449759 -3.1593132 2.1500001
5.9454536 -2.8594728 2.25
5.8454537 -2.8593135 2.25
5.9452944 -2.9594727 2.25
5.8452945 -2.9593134 2.25
5.9454536 -2.8594728 2.3499999
5.8454537 -2.8593135 2.3499999
5.8452945 -2.9593134 2.3499999
5.7454543 -2.8591542 2.25
5.745295 -2.9591541 2.25
5.7454543 -2.8591542 2.3499999
5.745295 -2.9591541 2.3499999
5.9451351 -3.0594726 2.25
5.8451352 -3.0593133 2.25
5.9449759 -3.1594725 2.25
5.8449759 -3.1593132 2.25
5.9451351 -3.0594726 2.3499999
5.8451352 -3.0593133 2.3499999
5.8449759 -3.1593132 2.3499999
5.7451358 -3.059154 2.25
5.7449765 -3.1591539 2.25
5.7451358 -3.059154 2.3499999
5.7449765 -3.1591539 2.3499999
5.5460916 -2.4588363 1.65
5.5452952 -2.9588356 1.65
5.545136 -3.0588355 1.65
5.5449767 -3.1588354 1.65
5.8452945 -2.9593134 2.45
5.7454543 -2.8591542 2.45
5.745295 -2.9591541 2.45
5.9451351 -3.0594726 2.45
5.8449759 -3.1593132 2.45
5.8451352 -3.0593133 2.55
5.9449759 -3.1594725 2.55
5.8449759 -3.1593132 2.55
5.7451358 -3.059154 2.45
4.244978 -3.156765 1.65
4.244978 -3.156765 1.75
4.0451379 -3.0564466 1.65
4.1449785 -3.1566057 1.65
4.0449786 -3.1564465 1.65
4.1451378 -3.0566058 1.75
4.0451379 -3.0564466 1.75
4.1449785 -3.1566057 1.75
4.0449786 -3.1564465 1.75
4.244978 -3.156765 1.85
4.244978 -3.156765 1.95
4.1451378 -3.0566058 1.85
4.0451379 -3.0564466 1.85
4.1449785 -3.1566057 1.85
4.0449786 -3.1564465 1.85
4.1451378 -3.0566058 1.95
4.0451379 -3.0564466 1.95
4.1449785 -3.1566057 1.95
4.0449786 -3.1564465 1.95
4.244978 -3.156765 2.05
4.244978 -3.156765 2.1500001
4.1451378 -3.0566058 2.05
4.0451379 -3.0564466 2.05
4.1449785 -3.1566057 2.05
4.0449786 -3.1564465 2.05
4.1451378 -3.0566058 2.1500001
4.0451379 -3.0564466 2.1500001
4.1449785 -3.1566057 2.1500001
4.0449786 -3.1564465 2.1500001
4.244978 -3.156765 2.25
4.3449779 -3.1569242 2.3499999
4.244978 -3.156765 2.3499999
4.1449785 -3.1566057 2.25
4.0449786 -3.1564465 2.25
4.1449785 -3.1566057 2.3499999
4.0449786 -3.1564465 2.3499999
3.8452971 -2.9561281 1.65
3.8452971 -2.9561281 1.75
3.7454565 -2.855969 1.65
3.6454568 -2.8558097 1.65
3.7452972 -2.9559689 1.65
3.6452975 -2.9558096 1.65
3.7454565 -2.855969 1.75
3.6454568 -2.8558097 1.75
3.7452972 -2.9559689 1.75
3.6452975 -2.9558096 1.75
3.8950582 -3.1062076 1.7
3.7451379 -3.0559688 1.65
3.6451383 -3.0558095 1.65
3.7449787 -3.1559687 1.65
3.644979 -3.1558094 1.65
3.7451379 -3.0559688 1.75
3.6451383 -3.0558095 1.75
3.7449787 -3.1559687 1.75
3.644979 -3.1558094 1.75
3.8452971 -2.9561281 1.85
3.7452972 -2.9559689 1.85
3.6452975 -2.9558096 1.85
3.7452972 -2.9559689 1.95
3.6452975 -2.9558096 1.95
3.9451377 -3.0562873 1.85
3.8451378 -3.056128 1.85
3.9449785 -3.1562872 1.85
3.8449786 -3.1561279 1.85
3.9451377 -3.0562873 1.95
3.8451378 -3.056128 1.95
3.9449785 -3.1562872 1.95
3.8449786 -3.1561279 1.95
3.6950583 -3.1058891 1.9
3.5454566 -2.8556504 1.65
3.445457 -2.8554912 1.65
3.5452974 -2.9556503 1.65
3.4452977 -2.9554911 1.65
3.5454566 -2.8556504 1.75
3.445457 -2.8554912 1.75
3.5452974 -2.9556503 1.75
3.4452977 -2.9554911 1.75
3.3454568 -2.8553319 1.65
3.2454572 -2.8551726 1.65
3.3452976 -2.9553318 1.65
3.2452979 -2.9551725 1.65
3.3454568 -2.8553319 1.75
3.2454572 -2.8551726 1.75
3.3452976 -2.9553318 1.75
3.2452979 -2.9551725 1.75
3.5451381 -3.0556502 1.65
3.4451385 -3.055491 1.65
3.5449789 -3.1556501 1.65
3.4449792 -3.1554909 1.65
3.5451381 -3.0556502 1.75
3.4451385 -3.055491 1.75
3.5449789 -3.1556501 1.75
3.4449792 -3.1554909 1.75
3.3451383 -3.0553317 1.65
3.2451386 -3.0551724 1.65
3.344979 -3.1553316 1.65
3.2449794 -3.1551723 1.65
3.3451383 -3.0553317 1.75
3.2451386 -3.0551724 1.75
3.344979 -3.1553316 1.75
3.2449794 -3.1551723 1.75
3.5454566 -2.8556504 1.85
3.445457 -2.8554912 1.85
3.5452974 -2.9556503 1.85
3.4452977 -2.9554911 1.85
3.5452974 -2.9556503 1.95
3.4452977 -2.9554911 1.95
3.3454568 -2.8553319 1.85
3.2454572 -2.8551726 1.85
3.3452976 -2.9553318 1.85
3.2452979 -2.9551725 1.85
3.3454568 -2.8553319 1.95
3.2454572 -2.8551726 1.95
3.3452976 -2.9553318 1.95
3.2452979 -2.9551725 1.95
3.5451381 -3.0556502 1.85
3.4451385 -3.055491 1.85
3.5449789 -3.1556501 1.85
3.4449792 -3.1554909 1.85
3.5451381 -3.0556502 1.95
3.4451385 -3.055491 1.95
3.5449789 -3.1556501 1.95
3.4449792 -3.1554909 1.95
3.3451383 -3.0553317 1.85
3.2451386 -3.0551724 1.85
3.344979 -3.1553316 1.85
3.2449794 -3.1551723 1.85
3.3451383 -3.0553317 1.95
3.2451386 -3.0551724 1.95
3.344979 -3.1553316 1.95
3.2449794 -3.1551723 1.95
3.7452972 -2.9559689 2.05
3.6452975 -2.9558096 2.05
3.7452972 -2.9559689 2.1500001
3.6452975 -2.9558096 2.1500001
3.9451377 -3.0562873 2.05
3.8451378 -3.056128 2.05
3.9449785 -3.1562872 2.05
3.8449786 -3.1561279 2.05
3.9451377 -3.0562873 2.1500001
3.8451378 -3.056128 2.1500001
3.9449785 -3.1562872 2.1500001
3.8449786 -3.1561279 2.1500001
3.7451379 -3.0559688 2.05
3.6451383 -3.0558095 2.05
3.7449787 -3.1559687 2.05
3.644979 -3.1558094 2.05
3.7451379 -3.0559688 2.1500001
3.6451383 -3.0558095 2.1500001
3.7449787 -3.1559687 2.1500001
3.644979 -3.1558094 2.1500001
3.8452971 -2.9561281 2.25
3.8452971 -2.9561281 2.3499999
3.7452972 -2.9559689 2.25
3.6452975 -2.9558096 2.25
3.7452972 -2.9559689 2.3499999
3.6452975 -2.9558096 2.3499999
3.9451377 -3.0562873 2.25
3.8451378 -3.056128 2.25
3.9449785 -3.1562872 2.25
3.8449786 -3.1561279 2.25
3.9451377 -3.0562873 2.3499999
3.8451378 -3.056128 2.3499999
3.9449785 -3.1562872 2.3499999
3.8449786 -3.1561279 2.3499999
3.7451379 -3.0559688 2.25
3.6451383 -3.0558095 2.25
3.7449787 -3.1559687 2.25
3.644979 -3.1558094 2.25
3.7451379 -3.0559688 2.3499999
3.6451383 -3.0558095 2.3499999
3.445457 -2.8554912 2.05
3.5452974 -2.9556503 2.05
3.4452977 -2.9554911 2.05
3.5452974 -2.9556503 2.1500001
3.4452977 -2.9554911 2.1500001
3.2454572 -2.8551726 2.05
3.3452976 -2.9553318 2.05
3.2452979 -2.9551725 2.05
3.3452976 -2.9553318 2.1500001
3.2452979 -2.9551725 2.1500001
3.5451381 -3.0556502 2.05
3.4451385 -3.055491 2.05
3.5449789 -3.1556501 2.05
3.4449792 -3.1554909 2.05
3.5451381 -3.0556502 2.1500001
3.4451385 -3.055491 2.1500001
3.5449789 -3.1556501 2.1500001
3.4449792 -3.1554909 2.1500001
3.3451383 -3.0553317 2.05
3.2451386 -3.0551724 2.05
3.344979 -3.1553316 2.05
3.3451383 -3.0553317 2.1500001
3.2451386 -3.0551724 2.1500001
3.344979 -3.1553316 2.1500001
3.445457 -2.8554912 2.25
3.5452974 -2.9556503 2.25
3.4452977 -2.9554911 2.25
3.5452974 -2.9556503 2.3499999
3.4452977 -2.9554911 2.3499999
3.3454568 -2.8553319 2.25
3.2454572 -2.8551726 2.25
3.3452976 -2.9553318 2.25
3.2452979 -2.9551725 2.25
3.3452976 -2.9553318 2.3499999
3.5451381 -3.0556502 2.25
3.4451385 -3.055491 2.25
3.5449789 -3.1556501 2.25
3.3451383 -3.0553317 2.25
3.2451386 -3.0551724 2.25
4.2451372 -3.0567651 2.45
4.244978 -3.156765 2.45
4.1451378 -3.0566058 2.45
4.0451379 -3.0564466 2.45
4.1449785 -3.1566057 2.45
4.0449786 -3.1564465 2.45
3.8451378 -3.056128 2.45
3.9449785 -3.1562872 2.45
3.8449786 -3.1561279 2.45
3.1478462 -1.3550152 0.050000001
3.0478463 -1.3548559 0.050000001
3.1478462 -1.3550152 0.15000001
3.0478463 -1.3548559 0.15000001
2.9478464 -1.3546966 0.050000001
2.8478465 -1.3545374 0.050000001
2.9478464 -1.3546966 0.15000001
2.8478465 -1.3545374 0.15000001
3.147687 -1.4550151 0.050000001
3.0476871 -1.4548558 0.050000001
3.1475277 -1.555015 0.050000001
3.0475278 -1.5548557 0.050000001
3.147687 -1.4550151 0.15000001
3.0476871 -1.4548558 0.15000001
3.1475277 -1.555015 0.15000001
3.0475278 -1.5548557 0.15000001
2.9476871 -1.4546965 0.050000001
2.8476872 -1.4545373 0.050000001
2.9475279 -1.5546964 0.050000001
2.847528 -1.5545372 0.050000001
2.9476871 -1.4546965 0.15000001
2.8476872 -1.4545373 0.15000001
2.9475279 -1.5546964 0.15000001
3.1478462 -1.3550152 0.25
3.0478463 -1.3548559 0.25
3.1478462 -1.3550152 0.34999999
3.0478463 -1.3548559 0.34999999
2.9478464 -1.3546966 0.25
2.8478465 -1.3545374 0.25
2.9478464 -1.3546966 0.34999999
2.8478465 -1.3545374 0.34999999
3.147687 -1.4550151 0.25
3.0476871 -1.4548558 0.25
3.1475277 -1.555015 0.25
3.0475278 -1.5548557 0.25
3.147687 -1.4550151 0.34999999
3.0476871 -1.4548558 0.34999999
3.1475277 -1.555015 0.34999999
3.0475278 -1.5548557 0.34999999
2.9476871 -1.4546965 0.25
2.8476872 -1.4545373 0.25
2.9476871 -1.4546965 0.34999999
2.8476872 -1.4545373 0.34999999
2.7478466 -1.3543781 0.050000001
2.6478469 -1.3542188 0.050000001
2.7478466 -1.3543781 0.15000001
2.6478469 -1.3542188 0.15000001
2.5478468 -1.3540596 0.050000001
2.4478471 -1.3539003 0.050000001
2.5478468 -1.3540596 0.15000001
2.4478471 -1.3539003 0.15000001
2.7476873 -1.454378 0.050000001
2.6476877 -1.4542187 0.050000001
2.7476873 -1.454378 0.15000001
2.6476877 -1.4542187 0.15000001
2.5476875 -1.4540595 0.050000001
2.4476879 -1.4539002 0.050000001
2.4475286 -1.5539001 0.050000001
2.5476875 -1.4540595 0.15000001
2.4476879 -1.4539002 0.15000001
2.4475286 -1.5539001 0.15000001
2.7478466 -1.3543781 0.25
2.6478469 -1.3542188 0.25
2.7478466 -1.3543781 0.34999999
2.6478469 -1.3542188 0.34999999
2.5478468 -1.3540596 0.25
2.4478471 -1.3539003 0.25
2.5478468 -1.3540596 0.34999999
2.4478471 -1.3539003 0.34999999
2.7476873 -1.454378 0.25
2.6476877 -1.4542187 0.25
2.7476873 -1.454378 0.34999999
2.6476877 -1.4542187 0.34999999
2.5476875 -1.4540595 0.25
2.4476879 -1.4539002 0.25
2.4475286 -1.5539001 0.25
2.5476875 -1.4540595 0.34999999
2.4476879 -1.4539002 0.34999999
2.4475286 -1.5539001 0.34999999
3.1478462 -1.3550152 0.44999999
3.0478463 -1.3548559 0.44999999
3.1478462 -1.3550152 0.55000001
3.0478463 -1.3548559 0.55000001
2.9478464 -1.3546966 0.44999999
2.8478465 -1.3545374 0.44999999
2.9478464 -1.3546966 0.55000001
2.8478465 -1.3545374 0.55000001
3.147687 -1.4550151 0.44999999
3.0476871 -1.4548558 0.44999999
3.1475277 -1.555015 0.44999999
3.147687 -1.4550151 0.55000001
3.0476871 -1.4548558 0.55000001
3.1475277 -1.555015 0.55000001
2.9476871 -1.4546965 0.44999999
2.8476872 -1.4545373 0.44999999
2.9476871 -1.4546965 0.55000001
2.8476872 -1.4545373 0.55000001
3.1478462 -1.3550152 0.64999998
3.0478463 -1.3548559 0.64999998
3.1478462 -1.3550152 0.75
3.0478463 -1.3548559 0.75
2.9478464 -1.3546966 0.64999998
2.8478465 -1.3545374 0.64999998
2.9478464 -1.3546966 0.75
2.8478465 -1.3545374 0.75
3.147687 -1.4550151 0.64999998
3.0476871 -1.4548558 0.64999998
3.1475277 -1.555015 0.64999998
3.147687 -1.4550151 0.75
3.0476871 -1.4548558 0.75
2.9476871 -1.4546965 0.64999998
2.8476872 -1.4545373 0.64999998
2.9476871 -1.4546965 0.75
2.8476872 -1.4545373 0.75
2.7478466 -1.3543781 0.44999999
2.6478469 -1.3542188 0.44999999
2.7478466 -1.3543781 0.55000001
2.6478469 -1.3542188 0.55000001
2.5478468 -1.3540596 0.44999999
2.4478471 -1.3539003 0.44999999
2.5478468 -1.3540596 0.55000001
2.4478471 -1.3539003 0.55000001
2.7476873 -1.454378 0.44999999
2.6476877 -1.4542187 0.44999999
2.7476873 -1.454378 0.55000001
2.6476877 -1.4542187 0.55000001
2.5476875 -1.4540595 0.44999999
2.4476879 -1.4539002 0.44999999
2.4475286 -1.5539001 0.44999999
2.5476875 -1.4540595 0.55000001
2.4476879 -1.4539002 0.55000001
2.4475286 -1.5539001 0.55000001
2.7478466 -1.3543781 0.64999998
2.6478469 -1.3542188 0.64999998
2.7478466 -1.3543781 0.75
2.6478469 -1.3542188 0.75
2.5478468 -1.3540596 0.64999998
2.4478471 -1.3539003 0.64999998
2.5478468 -1.3540596 0.75
2.4478471 -1.3539003 0.75
2.7476873 -1.454378 0.64999998
2.6476877 -1.4542187 0.64999998
2.7476873 -1.454378 0.75
2.6476877 -1.4542187 0.75
2.5476875 -1.4540595 0.64999998
2.4476879 -1.4539002 0.64999998
2.4475286 -1.5539001 0.64999998
2.5476875 -1.4540595 0.75
2.4476879 -1.4539002 0.75
2.5475283 -1.5540594 0.75
2.4475286 -1.5539001 0.75
2.347847 -1.353741 0.25
2.347847 -1.353741 0.34999999
2.3475285 -1.5537409 0.25
2.3475285 -1.5537409 0.34999999
2.347847 -1.353741 0.55000001
2.3476877 -1.453741 0.44999999
2.3475285 -1.5537409 0.44999999
2.3476877 -1.453741 0.55000001
2.3475285 -1.5537409 0.55000001
2.347847 -1.353741 0.64999998
2.347847 -1.353741 0.75
2.3476877 -1.453741 0.64999998
2.3475285 -1.5537409 0.64999998
3.1478462 -1.3550152 0.85000002
3.0478463 -1.3548559 0.85000002
3.1478462 -1.3550152 0.94999999
3.0478463 -1.3548559 0.94999999
2.9478464 -1.3546966 0.85000002
2.8478465 -1.3545374 0.85000002
2.9478464 -1.3546966 0.94999999
2.8478465 -1.3545374 0.94999999
3.147687 -1.4550151 0.85000002
3.0476871 -1.4548558 0.85000002
3.147687 -1.4550151 0.94999999
3.0476871 -1.4548558 0.94999999
2.9476871 -1.4546965 0.85000002
2.8476872 -1.4545373 0.85000002
2.9476871 -1.4546965 0.94999999
3.0476871 -1.4548558 1.05
2.9476871 -1.4546965 1.05
2.9475279 -1.5546964 1.05
2.7478466 -1.3543781 0.85000002
2.6478469 -1.3542188 0.85000002
2.7478466 -1.3543781 0.94999999
2.6478469 -1.3542188 0.94999999
2.5478468 -1.3540596 0.85000002
2.4478471 -1.3539003 0.85000002
2.5478468 -1.3540596 0.94999999
2.4478471 -1.3539003 0.94999999
2.7476873 -1.454378 0.85000002
2.6476877 -1.4542187 0.85000002
2.5476875 -1.4540595 0.85000002
2.5476875 -1.4540595 0.94999999
2.347847 -1.353741 0.85000002
2.347847 -1.353741 0.94999999
0.84816748 -1.1513524 0.15000001
0.94816732 -1.1515117 0.25
0.84816748 -1.1513524 0.25
0.94816732 -1.1515117 0.34999999
0.84816748 -1.1513524 0.34999999
1.4480075 -1.2523079 0.050000001
1.4478482 -1.3523077 0.050000001
1.4480075 -1.2523079 0.15000001
1.297928 -1.3020688 0.1
1.4476889 -1.4523076 0.050000001
1.4475297 -1.5523075 0.050000001
1.4476889 -1.4523076 0.15000001
1.4475297 -1.5523075 0.15000001
1.2476892 -1.4519891 0.050000001
1.24753 -1.551989 0.050000001
1.2476892 -1.4519891 0.15000001
1.24753 -1.551989 0.15000001
1.4480075 -1.2523079 0.25
1.4478482 -1.3523077 0.25
1.4480075 -1.2523079 0.34999999
1.4478482 -1.3523077 0.34999999
1.297928 -1.3020688 0.30000001
1.4476889 -1.4523076 0.25
1.4475297 -1.5523075 0.25
1.4476889 -1.4523076 0.34999999
1.4475297 -1.5523075 0.34999999
1.2476892 -1.4519891 0.25
1.24753 -1.551989 0.25
1.2476892 -1.4519891 0.34999999
1.24753 -1.551989 0.34999999
1.1480079 -1.2518301 0.050000001
1.048008 -1.2516708 0.050000001
1.1478486 -1.3518299 0.050000001
1.0478487 -1.3516706 0.050000001
1.1480079 -1.2518301 0.15000001
1.048008 -1.2516708 0.15000001
1.1478486 -1.3518299 0.15000001
1.0478487 -1.3516706 0.15000001
0.89792848 -1.3014318 0.1
1.1476893 -1.4518298 0.050000001
1.1475301 -1.5518297 0.050000001
1.1476893 -1.4518298 0.15000001
1.1475301 -1.5518297 0.15000001
1.1480079 -1.2518301 0.25
1.048008 -1.2516708 0.25
1.1478486 -1.3518299 0.25
1.0478487 -1.3516706 0.25
1.1480079 -1.2518301 0.34999999
1.048008 -1.2516708 0.34999999
1.1478486 -1.3518299 0.34999999
1.0478487 -1.3516706 0.34999999
0.89792848 -1.3014318 0.30000001
1.1476893 -1.4518298 0.25
1.1475301 -1.5518297 0.25
1.1476893 -1.4518298 0.34999999
1.1475301 -1.5518297 0.34999999
1.0481672 -1.1516709 0.55000001
0.94816732 -1.1515117 0.44999999
0.84816748 -1.1513524 0.44999999
0.94816732 -1.1515117 0.55000001
0.84816748 -1.1513524 0.55000001
1.1481671 -1.1518302 0.64999998
1.0481672 -1.1516709 0.64999998
1.1481671 -1.1518302 0.75
1.0481672 -1.1516709 0.75
0.94816732 -1.1515117 0.64999998
0.84816748 -1.1513524 0.64999998
0.94816732 -1.1515117 0.75
0.84816748 -1.1513524 0.75
1.4480075 -1.2523079 0.44999999
1.4478482 -1.3523077 0.44999999
1.4480075 -1.2523079 0.55000001
1.4478482 -1.3523077 0.55000001
1.3480076 -1.2521486 0.44999999
1.2480078 -1.2519894 0.44999999
1.3478483 -1.3521484 0.44999999
1.2478485 -1.3519892 0.44999999
1.3480076 -1.2521486 0.55000001
1.2480078 -1.2519894 0.55000001
1.2478485 -1.3519892 0.55000001
1.4476889 -1.4523076 0.44999999
1.4475297 -1.5523075 0.44999999
1.4476889 -1.4523076 0.55000001
1.4475297 -1.5523075 0.55000001
1.2476892 -1.4519891 0.44999999
1.24753 -1.551989 0.44999999
1.2476892 -1.4519891 0.55000001
1.24753 -1.551989 0.55000001
1.4480075 -1.2523079 0.64999998
1.4478482 -1.3523077 0.64999998
1.4480075 -1.2523079 0.75
1.3480076 -1.2521486 0.64999998
1.2480078 -1.2519894 0.64999998
1.2478485 -1.3519892 0.64999998
1.3480076 -1.2521486 0.75
1.2480078 -1.2519894 0.75
1.2478485 -1.3519892 0.75
1.4476889 -1.4523076 0.64999998
1.2476892 -1.4519891 0.64999998
1.24753 -1.551989 0.64999998
1.0979283 -1.3017503 0.5
0.89792848 -1.3014318 0.5
1.1475301 -1.5518297 0.44999999
1.1480079 -1.2518301 0.64999998
1.048008 -1.2516708 0.64999998
1.1478486 -1.3518299 0.64999998
1.0478487 -1.3516706 0.64999998
1.1480079 -1.2518301 0.75
1.048008 -1.2516708 0.75
1.1478486 -1.3518299 0.75
1.0478487 -1.3516706 0.75
0.94800806 -1.2515116 0.64999998
0.84800822 -1.2513523 0.64999998
0.9478488 -1.3515114 0.64999998
0.84784895 -1.3513521 0.64999998
0.94800806 -1.2515116 0.75
0.84800822 -1.2513523 0.75
0.9478488 -1.3515114 0.75
0.84784895 -1.3513521 0.75
0.74816757 -1.1511931 0.050000001
0.64816767 -1.1510339 0.050000001
0.74816757 -1.1511931 0.15000001
0.64816767 -1.1510339 0.15000001
0.54816782 -1.1508746 0.050000001
0.44816789 -1.1507154 0.050000001
0.54816782 -1.1508746 0.15000001
0.44816789 -1.1507154 0.15000001
0.74816757 -1.1511931 0.25
0.64816767 -1.1510339 0.25
0.74816757 -1.1511931 0.34999999
0.64816767 -1.1510339 0.34999999
0.54816782 -1.1508746 0.25
0.44816789 -1.1507154 0.25
0.54816782 -1.1508746 0.34999999
0.44816789 -1.1507154 0.34999999
0.34816802 -1.1505561 0.050000001
0.24816816 -1.1503968 0.050000001
0.34816802 -1.1505561 0.15000001
0.24816816 -1.1503968 0.15000001
0.34816802 -1.1505561 0.25
0.24816816 -1.1503968 0.25
0.34816802 -1.1505561 0.34999999
0.24816816 -1.1503968 0.34999999
0.74800831 -1.251193 0.050000001
0.64800841 -1.2510338 0.050000001
0.74784905 -1.3511928 0.050000001
0.64784914 -1.3510336 0.050000001
0.74800831 -1.251193 0.15000001
0.64800841 -1.2510338 0.15000001
0.74784905 -1.3511928 0.15000001
0.64784914 -1.3510336 0.15000001
0.54800856 -1.2508745 0.050000001
0.44800863 -1.2507153 0.050000001
0.5478493 -1.3508743 0.050000001
0.44784936 -1.350715 0.050000001
0.54800856 -1.2508745 0.15000001
0.44800863 -1.2507153 0.15000001
0.5478493 -1.3508743 0.15000001
0.44784936 -1.350715 0.15000001
0.69792873 -1.3011132 0.30000001
0.54800856 -1.2508745 0.25
0.44800863 -1.2507153 0.25
0.5478493 -1.3508743 0.25
0.44784936 -1.350715 0.25
0.54800856 -1.2508745 0.34999999
0.44800863 -1.2507153 0.34999999
0.5478493 -1.3508743 0.34999999
0.44784936 -1.350715 0.34999999
0.34800875 -1.250556 0.050000001
0.24800889 -1.2503967 0.050000001
0.34784949 -1.3505558 0.050000001
0.24784961 -1.3503965 0.050000001
0.34800875 -1.250556 0.15000001
0.24800889 -1.2503967 0.15000001
0.34784949 -1.3505558 0.15000001
0.24784961 -1.3503965 0.15000001
0.34769022 -1.4505557 0.050000001
0.24769035 -1.4503964 0.050000001
0.34753096 -1.5505556 0.050000001
0.24753109 -1.5503963 0.050000001
0.34769022 -1.4505557 0.15000001
0.24769035 -1.4503964 0.15000001
0.34753096 -1.5505556 0.15000001
0.24753109 -1.5503963 0.15000001
0.14769047 -1.4502372 0.15000001
0.14753121 -1.5502371 0.15000001
0.34800875 -1.250556 0.25
0.24800889 -1.2503967 0.25
0.34784949 -1.3505558 0.25
0.24784961 -1.3503965 0.25
0.34800875 -1.250556 0.34999999
0.24800889 -1.2503967 0.34999999
0.34784949 -1.3505558 0.34999999
0.24784961 -1.3503965 0.34999999
0.34769022 -1.4505557 0.25
0.24769035 -1.4503964 0.25
0.34753096 -1.5505556 0.25
0.24753109 -1.5503963 0.25
0.34769022 -1.4505557 0.34999999
0.24769035 -1.4503964 0.34999999
0.34753096 -1.5505556 0.34999999
0.24753109 -1.5503963 0.34999999
0.14753121 -1.5502371 0.25
0.14769047 -1.4502372 0.34999999
0.14753121 -1.5502371 0.34999999
0.74816757 -1.1511931 0.44999999
0.64816767 -1.1510339 0.44999999
0.74816757 -1.1511931 0.55000001
0.64816767 -1.1510339 0.55000001
0.54816782 -1.1508746 0.44999999
0.44816789 -1.1507154 0.44999999
0.54816782 -1.1508746 0.55000001
0.44816789 -1.1507154 0.55000001
0.74816757 -1.1511931 0.64999998
0.64816767 -1.1510339 0.64999998
0.74816757 -1.1511931 0.75
0.64816767 -1.1510339 0.75
0.54816782 -1.1508746 0.64999998
0.44816789 -1.1507154 0.64999998
0.54816782 -1.1508746 0.75
0.44816789 -1.1507154 0.75
0.34816802 -1.1505561 0.44999999
0.24816816 -1.1503968 0.44999999
0.34816802 -1.1505561 0.55000001
0.24816816 -1.1503968 0.55000001
0.34816802 -1.1505561 0.64999998
0.24816816 -1.1503968 0.64999998
0.34816802 -1.1505561 0.75
0.24816816 -1.1503968 0.75
0.74800831 -1.251193 0.44999999
0.64800841 -1.2510338 0.44999999
0.74784905 -1.3511928 0.44999999
0.64784914 -1.3510336 0.44999999
0.74800831 -1.251193 0.55000001
0.64800841 -1.2510338 0.55000001
0.74784905 -1.3511928 0.55000001
0.64784914 -1.3510336 0.55000001
0.54800856 -1.2508745 0.44999999
0.44800863 -1.2507153 0.44999999
0.5478493 -1.3508743 0.44999999
0.44784936 -1.350715 0.44999999
0.54800856 -1.2508745 0.55000001
0.44800863 -1.2507153 0.55000001
0.5478493 -1.3508743 0.55000001
0.44784936 -1.350715 0.55000001
0.74800831 -1.251193 0.64999998
0.64800841 -1.2510338 0.64999998
0.74784905 -1.3511928 0.64999998
0.64784914 -1.3510336 0.64999998
0.74800831 -1.251193 0.75
0.64800841 -1.2510338 0.75
0.74784905 -1.3511928 0.75
0.64784914 -1.3510336 0.75
0.54800856 -1.2508745 0.64999998
0.44800863 -1.2507153 0.64999998
0.5478493 -1.3508743 0.64999998
0.44784936 -1.350715 0.64999998
0.54800856 -1.2508745 0.75
0.44800863 -1.2507153 0.75
0.5478493 -1.3508743 0.75
0.44784936 -1.350715 0.75
0.2979292 -1.3004762 0.5
0.34769022 -1.4505557 0.44999999
0.24769035 -1.4503964 0.44999999
0.34753096 -1.5505556 0.44999999
0.24753109 -1.5503963 0.44999999
0.34769022 -1.4505557 0.55000001
0.24769035 -1.4503964 0.55000001
0.34753096 -1.5505556 0.55000001
0.24753109 -1.5503963 0.55000001
0.14769047 -1.4502372 0.44999999
0.14753121 -1.5502371 0.44999999
0.14769047 -1.4502372 0.55000001
0.14753121 -1.5502371 0.55000001
0.34800875 -1.250556 0.64999998
0.24800889 -1.2503967 0.64999998
0.34784949 -1.3505558 0.64999998
0.24784961 -1.3503965 0.64999998
0.34800875 -1.250556 0.75
0.24800889 -1.2503967 0.75
0.24769035 -1.4503964 0.64999998
0.34753096 -1.5505556 0.64999998
0.14769047 -1.4502372 0.64999998
0.14753121 -1.5502371 0.64999998
1.248167 -1.1519895 0.85000002
1.248167 -1.1519895 0.94999999
1.1481671 -1.1518302 0.85000002
1.0481672 -1.1516709 0.85000002
1.1481671 -1.1518302 0.94999999
1.0481672 -1.1516709 0.94999999
0.94816732 -1.1515117 0.85000002
0.84816748 -1.1513524 0.85000002
0.94816732 -1.1515117 0.94999999
0.84816748 -1.1513524 0.94999999
1.4480075 -1.2523079 0.85000002
1.4480075 -1.2523079 0.94999999
1.3480076 -1.2521486 0.85000002
1.2480078 -1.2519894 0.85000002
1.3480076 -1.2521486 0.94999999
1.2480078 -1.2519894 0.94999999
1.1480079 -1.2518301 0.85000002
1.048008 -1.2516708 0.85000002
1.1478486 -1.3518299 0.85000002
1.0478487 -1.3516706 0.85000002
1.1480079 -1.2518301 0.94999999
0.94800806 -1.2515116 0.85000002
0.84800822 -1.2513523 0.85000002
0.9478488 -1.3515114 0.85000002
0.84784895 -1.3513521 0.85000002
0.74816757 -1.1511931 0.85000002
0.64816767 -1.1510339 0.85000002
0.74816757 -1.1511931 0.94999999
0.64816767 -1.1510339 0.94999999
0.54816782 -1.1508746 0.85000002
0.44816789 -1.1507154 0.85000002
0.54816782 -1.1508746 0.94999999
0.44816789 -1.1507154 0.94999999
0.34816802 -1.1505561 0.85000002
0.24816816 -1.1503968 0.85000002
0.34816802 -1.1505561 0.94999999
0.24816816 -1.1503968 0.94999999
0.14816828 -1.1502376 0.85000002
0.14816828 -1.1502376 0.94999999
0.74800831 -1.251193 0.85000002
0.64800841 -1.2510338 0.85000002
0.74784905 -1.3511928 0.85000002
0.64784914 -1.3510336 0.85000002
0.54800856 -1.2508745 0.85000002
0.44800863 -1.2507153 0.85000002
0.5478493 -1.3508743 0.85000002
0.34800875 -1.250556 0.85000002
2.4473693 -1.6539 0.050000001
2.4472101 -1.7538998 0.050000001
2.4473693 -1.6539 0.15000001
2.4472101 -1.7538998 0.15000001
2.4470508 -1.8538997 0.050000001
2.4468915 -1.9538996 0.050000001
2.5470505 -1.854059 0.15000001
2.4470508 -1.8538997 0.15000001
2.5468912 -1.9540589 0.15000001
2.4468915 -1.9538996 0.15000001
2.4473693 -1.6539 0.25
2.4472101 -1.7538998 0.25
2.4473693 -1.6539 0.34999999
2.4472101 -1.7538998 0.34999999
2.4470508 -1.8538997 0.25
2.4468915 -1.9538996 0.25
2.4470508 -1.8538997 0.34999999
2.4468915 -1.9538996 0.34999999
2.4467323 -2.0538995 0.050000001
2.5465727 -2.1540587 0.050000001
2.446573 -2.1538994 0.050000001
2.5467319 -2.0540588 0.15000001
2.4467323 -2.0538995 0.15000001
2.5465727 -2.1540587 0.15000001
2.446573 -2.1538994 0.15000001
2.6462543 -2.3542175 0.050000001
2.6464136 -2.2542179 0.15000001
2.5464134 -2.2540586 0.050000001
2.4464138 -2.2538993 0.050000001
2.5462542 -2.3540583 0.050000001
2.4462545 -2.353899 0.050000001
2.5467319 -2.0540588 0.25
2.4467323 -2.0538995 0.25
2.4467323 -2.0538995 0.34999999
2.4473693 -1.6539 0.44999999
2.4472101 -1.7538998 0.44999999
2.4473693 -1.6539 0.55000001
2.4472101 -1.7538998 0.55000001
2.4470508 -1.8538997 0.44999999
2.4468915 -1.9538996 0.44999999
2.4470508 -1.8538997 0.55000001
2.4468915 -1.9538996 0.55000001
2.4473693 -1.6539 0.64999998
2.4472101 -1.7538998 0.64999998
2.547369 -1.6540593 0.75
2.4470508 -1.8538997 0.64999998
2.4468915 -1.9538996 0.64999998
2.5467319 -2.0540588 0.44999999
2.5465727 -2.1540587 0.44999999
2.5467319 -2.0540588 0.55000001
2.746254 -2.3543768 0.44999999
2.6464136 -2.2542179 0.55000001
2.6462543 -2.3542175 0.55000001
2.5467319 -2.0540588 0.64999998
2.4467323 -2.0538995 0.64999998
2.5465727 -2.1540587 0.64999998
2.6462543 -2.3542175 0.64999998
2.5464134 -2.2540586 0.64999998
2.3472099 -1.7537405 0.050000001
2.3472099 -1.7537405 0.15000001
2.3470507 -1.8537405 0.050000001
2.3468914 -1.9537404 0.050000001
2.3470507 -1.8537405 0.15000001
2.3468914 -1.9537404 0.15000001
2.3472099 -1.7537405 0.25
2.3473692 -1.6537408 0.34999999
2.3472099 -1.7537405 0.34999999
2.3470507 -1.8537405 0.25
2.3468914 -1.9537404 0.25
2.3470507 -1.8537405 0.34999999
2.3468914 -1.9537404 0.34999999
2.3467321 -2.0537403 0.050000001
2.3467321 -2.0537403 0.15000001
2.3473692 -1.6537408 0.44999999
2.3472099 -1.7537405 0.44999999
2.3473692 -1.6537408 0.55000001
2.3472099 -1.7537405 0.55000001
2.3470507 -1.8537405 0.44999999
2.3468914 -1.9537404 0.44999999
2.3470507 -1.8537405 0.55000001
2.3468914 -1.9537404 0.55000001
2.3473692 -1.6537408 0.64999998
2.3472099 -1.7537405 0.64999998
2.3470507 -1.8537405 0.64999998
2.3468914 -1.9537404 0.64999998
2.8460946 -2.4545362 0.050000001
2.8459353 -2.5545359 0.050000001
2.945776 -2.6546953 0.050000001
2.8457761 -2.654536 0.050000001
2.9456167 -2.7546949 0.050000001
2.8456168 -2.7545357 0.050000001
2.7460947 -2.4543769 0.050000001
2.646095 -2.4542177 0.050000001
2.7459354 -2.5543766 0.050000001
2.6459358 -2.5542173 0.050000001
2.5460949 -2.4540584 0.050000001
2.5459356 -2.5540581 0.050000001
2.7457762 -2.6543767 0.050000001
2.5457764 -2.6540582 0.050000001
3.0454574 -2.8548541 0.050000001
3.145298 -2.9550133 0.050000001
3.0452981 -2.954854 0.050000001
2.9454575 -2.8546948 0.050000001
2.9452982 -2.9546947 0.050000001
3.1451387 -3.0550132 0.050000001
3.0451388 -3.0548539 0.050000001
3.1449795 -3.1550131 0.050000001
3.0449796 -3.1548538 0.050000001
3.1449795 -3.1550131 0.15000001
3.0449796 -3.1548538 0.15000001
2.9451389 -3.0546947 0.050000001
2.845139 -3.0545354 0.050000001
2.9449797 -3.1546946 0.050000001
2.8449798 -3.1545353 0.050000001
2.9451389 -3.0546947 0.15000001
2.845139 -3.0545354 0.15000001
2.9449797 -3.1546946 0.15000001
2.8449798 -3.1545353 0.15000001
3.1449795 -3.1550131 0.25
3.0449796 -3.1548538 0.25
3.1451387 -3.0550132 0.34999999
3.0451388 -3.0548539 0.34999999
3.1449795 -3.1550131 0.34999999
2.9451389 -3.0546947 0.25
2.845139 -3.0545354 0.25
2.9449797 -3.1546946 0.25
2.8449798 -3.1545353 0.25
2.9451389 -3.0546947 0.34999999
2.845139 -3.0545354 0.34999999
2.9449797 -3.1546946 0.34999999
2.8449798 -3.1545353 0.34999999
2.645458 -2.8542171 0.050000001
2.7452984 -2.9543762 0.050000001
2.6452987 -2.954217 0.050000001
2.5452986 -2.9540577 0.050000001
2.4452989 -2.9538984 0.050000001
2.7451391 -3.0543761 0.050000001
2.6451395 -3.0542169 0.050000001
2.7449799 -3.154376 0.050000001
2.6449802 -3.1542168 0.050000001
2.7451391 -3.0543761 0.15000001
2.6451395 -3.0542169 0.15000001
2.7449799 -3.154376 0.15000001
2.6449802 -3.1542168 0.15000001
2.5451393 -3.0540576 0.050000001
2.4451396 -3.0538983 0.050000001
2.54498 -3.1540575 0.050000001
2.4449804 -3.1538982 0.050000001
2.5451393 -3.0540576 0.15000001
2.4451396 -3.0538983 0.15000001
2.54498 -3.1540575 0.15000001
2.4449804 -3.1538982 0.15000001
2.7451391 -3.0543761 0.25
2.6451395 -3.0542169 0.25
2.7449799 -3.154376 0.25
2.6449802 -3.1542168 0.25
2.7451391 -3.0543761 0.34999999
2.6451395 -3.0542169 0.34999999
2.7449799 -3.154376 0.34999999
2.6449802 -3.1542168 0.34999999
2.49506 -3.1039779 0.30000001
2.8460946 -2.4545362 0.55000001
2.8459353 -2.5545359 0.55000001
3.0456166 -2.7548542 0.44999999
3.1456165 -2.7550135 0.55000001
3.0456166 -2.7548542 0.55000001
2.945776 -2.6546953 0.44999999
2.8457761 -2.654536 0.44999999
2.9456167 -2.7546949 0.44999999
2.945776 -2.6546953 0.55000001
2.9456167 -2.7546949 0.55000001
2.8459353 -2.5545359 0.64999998
2.8459353 -2.5545359 0.75
3.1456165 -2.7550135 0.64999998
3.0456166 -2.7548542 0.64999998
3.0456166 -2.7548542 0.75
2.945776 -2.6546953 0.64999998
2.8457761 -2.654536 0.64999998
2.9456167 -2.7546949 0.64999998
2.945776 -2.6546953 0.75
2.8457761 -2.654536 0.75
2.9456167 -2.7546949 0.75
2.7460947 -2.4543769 0.44999999
2.7460947 -2.4543769 0.55000001
2.7459354 -2.5543766 0.55000001
2.7460947 -2.4543769 0.64999998
2.7460947 -2.4543769 0.75
3.1454573 -2.8550134 0.44999999
3.145298 -2.9550133 0.44999999
3.0452981 -2.954854 0.44999999
3.1454573 -2.8550134 0.55000001
3.0454574 -2.8548541 0.55000001
3.145298 -2.9550133 0.55000001
3.0452981 -2.954854 0.55000001
3.0950592 -3.1049335 0.5
2.9451389 -3.0546947 0.44999999
2.845139 -3.0545354 0.44999999
2.9449797 -3.1546946 0.44999999
2.8449798 -3.1545353 0.44999999
2.9451389 -3.0546947 0.55000001
2.845139 -3.0545354 0.55000001
2.9449797 -3.1546946 0.55000001
2.8449798 -3.1545353 0.55000001
3.1454573 -2.8550134 0.64999998
3.0454574 -2.8548541 0.64999998
3.145298 -2.9550133 0.64999998
3.0452981 -2.954854 0.64999998
3.1454573 -2.8550134 0.75
3.0454574 -2.8548541 0.75
3.145298 -2.9550133 0.75
3.0452981 -2.954854 0.75
2.9452982 -2.9546947 0.64999998
2.9454575 -2.8546948 0.75
2.8454576 -2.8545356 0.75
2.9452982 -2.9546947 0.75
2.8452983 -2.9545355 0.75
3.1451387 -3.0550132 0.64999998
3.0451388 -3.0548539 0.64999998
3.1449795 -3.1550131 0.64999998
3.0449796 -3.1548538 0.64999998
3.1451387 -3.0550132 0.75
3.0451388 -3.0548539 0.75
3.1449795 -3.1550131 0.75
3.0449796 -3.1548538 0.75
2.8950593 -3.104615 0.69999999
2.4452989 -2.9538984 0.55000001
2.7451391 -3.0543761 0.44999999
2.6451395 -3.0542169 0.44999999
2.7449799 -3.154376 0.44999999
2.6449802 -3.1542168 0.44999999
2.7451391 -3.0543761 0.55000001
2.6451395 -3.0542169 0.55000001
2.7449799 -3.154376 0.55000001
2.6449802 -3.1542168 0.55000001
2.49506 -3.1039779 0.5
2.7452984 -2.9543762 0.75
2.6452987 -2.954217 0.75
2.4452989 -2.9538984 0.64999998
2.4452989 -2.9538984 0.75
2.7451391 -3.0543761 0.64999998
2.6451395 -3.0542169 0.64999998
2.7449799 -3.154376 0.64999998
2.6449802 -3.1542168 0.64999998
2.7451391 -3.0543761 0.75
2.6451395 -3.0542169 0.75
2.7449799 -3.154376 0.75
2.6449802 -3.1542168 0.75
2.49506 -3.1039779 0.69999999
2.3452988 -2.9537392 0.050000001
2.2452991 -2.9535799 0.050000001
2.3452988 -2.9537392 0.15000001
2.2452991 -2.9535799 0.15000001
2.1452992 -2.9534206 0.050000001
2.1452992 -2.9534206 0.15000001
2.2950602 -3.1036594 0.1
2.1451399 -3.0534205 0.050000001
2.04514 -3.0532613 0.050000001
2.1449807 -3.1534204 0.050000001
2.0449808 -3.1532612 0.050000001
2.1451399 -3.0534205 0.15000001
2.04514 -3.0532613 0.15000001
2.1449807 -3.1534204 0.15000001
2.0449808 -3.1532612 0.15000001
2.3452988 -2.9537392 0.25
2.2452991 -2.9535799 0.25
2.3452988 -2.9537392 0.34999999
2.2452991 -2.9535799 0.34999999
2.1452992 -2.9534206 0.25
2.1452992 -2.9534206 0.34999999
2.3451395 -3.0537391 0.25
2.2451398 -3.0535798 0.25
2.3449802 -3.153739 0.25
2.2449806 -3.1535797 0.25
2.3451395 -3.0537391 0.34999999
2.2451398 -3.0535798 0.34999999
2.3449802 -3.153739 0.34999999
2.2449806 -3.1535797 0.34999999
2.1451399 -3.0534205 0.25
2.04514 -3.0532613 0.25
2.1449807 -3.1534204 0.25
2.0449808 -3.1532612 0.25
2.1451399 -3.0534205 0.34999999
2.04514 -3.0532613 0.34999999
2.1449807 -3.1534204 0.34999999
2.0449808 -3.1532612 0.34999999
1.9451401 -3.053102 0.050000001
1.9449809 -3.1531019 0.050000001
2.3452988 -2.9537392 0.44999999
2.2452991 -2.9535799 0.44999999
2.3452988 -2.9537392 0.55000001
2.2452991 -2.9535799 0.55000001
2.1452992 -2.9534206 0.44999999
2.1452992 -2.9534206 0.55000001
2.3451395 -3.0537391 0.44999999
2.2451398 -3.0535798 0.44999999
2.3449802 -3.153739 0.44999999
2.2449806 -3.1535797 0.44999999
2.3451395 -3.0537391 0.55000001
2.2451398 -3.0535798 0.55000001
2.3449802 -3.153739 0.55000001
2.2449806 -3.1535797 0.55000001
2.1451399 -3.0534205 0.44999999
2.04514 -3.0532613 0.44999999
2.1449807 -3.1534204 0.44999999
2.0449808 -3.1532612 0.44999999
2.1451399 -3.0534205 0.55000001
2.04514 -3.0532613 0.55000001
2.1449807 -3.1534204 0.55000001
2.0449808 -3.1532612 0.55000001
2.3452988 -2.9537392 0.64999998
2.2452991 -2.9535799 0.64999998
2.3452988 -2.9537392 0.75
2.2452991 -2.9535799 0.75
2.1452992 -2.9534206 0.64999998
2.1452992 -2.9534206 0.75
2.3451395 -3.0537391 0.64999998
2.2451398 -3.0535798 0.64999998
2.3449802 -3.153739 0.64999998
2.2449806 -3.1535797 0.64999998
2.3451395 -3.0537391 0.75
2.2451398 -3.0535798 0.75
2.3449802 -3.153739 0.75
2.2449806 -3.1535797 0.75
2.1451399 -3.0534205 0.64999998
2.04514 -3.0532613 0.64999998
2.1449807 -3.1534204 0.64999998
2.0449808 -3.1532612 0.64999998
2.1451399 -3.0534205 0.75
2.04514 -3.0532613 0.75
2.1449807 -3.1534204 0.75
2.0449808 -3.1532612 0.75
2.8456168 -2.7545357 0.85000002
2.8457761 -2.654536 0.94999999
2.7457762 -2.6543767 0.85000002
2.7456169 -2.7543764 1.05
3.1454573 -2.8550134 0.85000002
3.0454574 -2.8548541 0.85000002
3.145298 -2.9550133 0.85000002
3.0452981 -2.954854 0.85000002
3.1454573 -2.8550134 0.94999999
3.145298 -2.9550133 0.94999999
3.0452981 -2.954854 0.94999999
2.9454575 -2.8546948 0.85000002
2.8454576 -2.8545356 0.85000002
2.9452982 -2.9546947 0.85000002
2.8452983 -2.9545355 0.85000002
2.9454575 -2.8546948 0.94999999
2.8454576 -2.8545356 0.94999999
2.9452982 -2.9546947 0.94999999
2.8452983 -2.9545355 0.94999999
3.1451387 -3.0550132 0.85000002
3.0451388 -3.0548539 0.85000002
3.1449795 -3.1550131 0.85000002
3.1451387 -3.0550132 0.94999999
3.0451388 -3.0548539 0.94999999
3.1449795 -3.1550131 0.94999999
3.0449796 -3.1548538 0.94999999
2.9451389 -3.0546947 0.85000002
2.845139 -3.0545354 0.85000002
2.9449797 -3.1546946 0.85000002
2.9451389 -3.0546947 0.94999999
2.845139 -3.0545354 0.94999999
2.9449797 -3.1546946 0.94999999
3.1454573 -2.8550134 1.05
3.0454574 -2.8548541 1.05
3.145298 -2.9550133 1.05
3.0452981 -2.954854 1.05
3.145298 -2.9550133 1.15
3.0452981 -2.954854 1.15
2.9454575 -2.8546948 1.05
2.8454576 -2.8545356 1.05
2.9452982 -2.9546947 1.05
2.8452983 -2.9545355 1.05
2.8454576 -2.8545356 1.15
2.9452982 -2.9546947 1.15
2.8452983 -2.9545355 1.15
3.1451387 -3.0550132 1.05
3.0451388 -3.0548539 1.05
3.1449795 -3.1550131 1.05
3.0449796 -3.1548538 1.05
3.1451387 -3.0550132 1.15
3.0451388 -3.0548539 1.15
3.1449795 -3.1550131 1.15
3.0449796 -3.1548538 1.15
2.9451389 -3.0546947 1.05
2.845139 -3.0545354 1.05
2.9449797 -3.1546946 1.05
2.9451389 -3.0546947 1.15
2.845139 -3.0545354 1.15
2.9449797 -3.1546946 1.15
2.8449798 -3.1545353 1.15
2.7454576 -2.8543763 0.85000002
2.7452984 -2.9543762 0.85000002
2.6452987 -2.954217 0.85000002
2.7454576 -2.8543763 0.94999999
2.7452984 -2.9543762 0.94999999
2.6452987 -2.954217 0.94999999
2.4452989 -2.9538984 0.85000002
2.4452989 -2.9538984 0.94999999
2.7451391 -3.0543761 0.85000002
2.6451395 -3.0542169 0.85000002
2.7449799 -3.154376 0.85000002
2.6449802 -3.1542168 0.85000002
2.7451391 -3.0543761 0.94999999
2.6451395 -3.0542169 0.94999999
2.7449799 -3.154376 0.94999999
2.6449802 -3.1542168 0.94999999
2.49506 -3.1039779 0.89999998
2.7454576 -2.8543763 1.05
2.7452984 -2.9543762 1.05
2.6452987 -2.954217 1.05
2.7454576 -2.8543763 1.15
2.7452984 -2.9543762 1.15
2.6452987 -2.954217 1.15
2.4452989 -2.9538984 1.05
2.5452986 -2.9540577 1.15
2.4452989 -2.9538984 1.15
2.7451391 -3.0543761 1.05
2.6451395 -3.0542169 1.05
2.7449799 -3.154376 1.05
2.6449802 -3.1542168 1.05
2.7451391 -3.0543761 1.15
2.6451395 -3.0542169 1.15
2.7449799 -3.154376 1.15
2.6449802 -3.1542168 1.15
2.5451393 -3.0540576 1.05
2.4451396 -3.0538983 1.05
2.54498 -3.1540575 1.05
2.4449804 -3.1538982 1.05
2.5451393 -3.0540576 1.15
2.4451396 -3.0538983 1.15
2.54498 -3.1540575 1.15
2.4449804 -3.1538982 1.15
2.6456172 -2.7542171 1.55
3.145298 -2.9550133 1.25
3.0452981 -2.954854 1.25
3.145298 -2.9550133 1.35
3.0452981 -2.954854 1.35
2.9452982 -2.9546947 1.25
2.8452983 -2.9545355 1.25
2.9452982 -2.9546947 1.35
2.8452983 -2.9545355 1.35
3.1451387 -3.0550132 1.25
3.0451388 -3.0548539 1.25
3.1449795 -3.1550131 1.25
3.0449796 -3.1548538 1.25
3.1451387 -3.0550132 1.35
3.0451388 -3.0548539 1.35
3.1449795 -3.1550131 1.35
3.0449796 -3.1548538 1.35
2.8950593 -3.104615 1.3
3.145298 -2.9550133 1.45
3.0452981 -2.954854 1.45
3.1454573 -2.8550134 1.55
3.0454574 -2.8548541 1.55
3.145298 -2.9550133 1.55
3.0452981 -2.954854 1.55
2.8454576 -2.8545356 1.45
2.9452982 -2.9546947 1.45
2.8452983 -2.9545355 1.45
2.9454575 -2.8546948 1.55
2.8454576 -2.8545356 1.55
2.9452982 -2.9546947 1.55
2.8452983 -2.9545355 1.55
3.1451387 -3.0550132 1.45
3.0451388 -3.0548539 1.45
3.1449795 -3.1550131 1.45
3.0449796 -3.1548538 1.45
3.1451387 -3.0550132 1.55
3.0451388 -3.0548539 1.55
3.1449795 -3.1550131 1.55
3.0449796 -3.1548538 1.55
2.9451389 -3.0546947 1.45
2.845139 -3.0545354 1.45
2.9449797 -3.1546946 1.45
2.8449798 -3.1545353 1.45
2.9451389 -3.0546947 1.55
2.845139 -3.0545354 1.55
2.9449797 -3.1546946 1.55
2.8449798 -3.1545353 1.55
2.7452984 -2.9543762 1.25
2.6452987 -2.954217 1.25
2.7452984 -2.9543762 1.35
2.6452987 -2.954217 1.35
2.5452986 -2.9540577 1.25
2.4452989 -2.9538984 1.25
2.5452986 -2.9540577 1.35
2.4452989 -2.9538984 1.35
2.7451391 -3.0543761 1.25
2.6451395 -3.0542169 1.25
2.7449799 -3.154376 1.25
2.6449802 -3.1542168 1.25
2.7451391 -3.0543761 1.35
2.6451395 -3.0542169 1.35
2.7449799 -3.154376 1.35
2.6449802 -3.1542168 1.35
2.5451393 -3.0540576 1.25
2.4451396 -3.0538983 1.25
2.54498 -3.1540575 1.25
2.4449804 -3.1538982 1.25
2.5451393 -3.0540576 1.35
2.4451396 -3.0538983 1.35
2.54498 -3.1540575 1.35
2.4449804 -3.1538982 1.35
2.7454576 -2.8543763 1.45
2.645458 -2.8542171 1.45
2.7452984 -2.9543762 1.45
2.6452987 -2.954217 1.45
2.7454576 -2.8543763 1.55
2.645458 -2.8542171 1.55
2.7452984 -2.9543762 1.55
2.6452987 -2.954217 1.55
2.5452986 -2.9540577 1.45
2.4452989 -2.9538984 1.45
2.5454578 -2.8540578 1.55
2.4454582 -2.8538985 1.55
2.5452986 -2.9540577 1.55
2.4452989 -2.9538984 1.55
2.7451391 -3.0543761 1.45
2.6451395 -3.0542169 1.45
2.7449799 -3.154376 1.45
2.6449802 -3.1542168 1.45
2.7451391 -3.0543761 1.55
2.6451395 -3.0542169 1.55
2.7449799 -3.154376 1.55
2.6449802 -3.1542168 1.55
2.5451393 -3.0540576 1.45
2.4451396 -3.0538983 1.45
2.54498 -3.1540575 1.45
2.4449804 -3.1538982 1.45
2.5451393 -3.0540576 1.55
2.4451396 -3.0538983 1.55
2.54498 -3.1540575 1.55
2.4449804 -3.1538982 1.55
2.3452988 -2.9537392 0.85000002
2.2452991 -2.9535799 0.85000002
2.3452988 -2.9537392 0.94999999
2.2452991 -2.9535799 0.94999999
2.1452992 -2.9534206 0.85000002
2.1452992 -2.9534206 0.94999999
2.3451395 -3.0537391 0.85000002
2.2451398 -3.0535798 0.85000002
2.3449802 -3.153739 0.85000002
2.2449806 -3.1535797 0.85000002
2.3451395 -3.0537391 0.94999999
2.2451398 -3.0535798 0.94999999
2.3449802 -3.153739 0.94999999
2.2449806 -3.1535797 0.94999999
2.1451399 -3.0534205 0.85000002
2.04514 -3.0532613 0.85000002
2.1449807 -3.1534204 0.85000002
2.0449808 -3.1532612 0.85000002
2.1451399 -3.0534205 0.94999999
2.04514 -3.0532613 0.94999999
2.1449807 -3.1534204 0.94999999
2.0449808 -3.1532612 0.94999999
2.3452988 -2.9537392 1.05
2.2452991 -2.9535799 1.05
2.3452988 -2.9537392 1.15
2.2452991 -2.9535799 1.15
2.1452992 -2.9534206 1.05
2.1452992 -2.9534206 1.15
2.2950602 -3.1036594 1.1
2.1451399 -3.0534205 1.05
2.04514 -3.0532613 1.05
2.1449807 -3.1534204 1.05
2.0449808 -3.1532612 1.05
2.1451399 -3.0534205 1.15
2.04514 -3.0532613 1.15
2.1449807 -3.1534204 1.15
2.0449808 -3.1532612 1.15
2.3452988 -2.9537392 1.25
2.2452991 -2.9535799 1.25
2.3452988 -2.9537392 1.35
2.2452991 -2.9535799 1.35
2.1452992 -2.9534206 1.25
2.1454585 -2.8534207 1.35
2.1452992 -2.9534206 1.35
2.3451395 -3.0537391 1.25
2.2451398 -3.0535798 1.25
2.3449802 -3.153739 1.25
2.2449806 -3.1535797 1.25
2.3451395 -3.0537391 1.35
2.2451398 -3.0535798 1.35
2.3449802 -3.153739 1.35
2.2449806 -3.1535797 1.35
2.1451399 -3.0534205 1.25
2.04514 -3.0532613 1.25
2.1449807 -3.1534204 1.25
2.0449808 -3.1532612 1.25
2.1451399 -3.0534205 1.35
2.04514 -3.0532613 1.35
2.1449807 -3.1534204 1.35
2.0449808 -3.1532612 1.35
2.2454584 -2.85358 1.45
2.3452988 -2.9537392 1.45
2.2452991 -2.9535799 1.45
2.345458 -2.8537393 1.55
2.2454584 -2.85358 1.55
2.3452988 -2.9537392 1.55
2.2452991 -2.9535799 1.55
2.1454585 -2.8534207 1.45
2.0454586 -2.8532615 1.45
2.1452992 -2.9534206 1.45
2.0452993 -2.9532614 1.45
2.1454585 -2.8534207 1.55
2.0454586 -2.8532615 1.55
2.1452992 -2.9534206 1.55
2.0452993 -2.9532614 1.55
2.3451395 -3.0537391 1.45
2.2451398 -3.0535798 1.45
2.3449802 -3.153739 1.45
2.2449806 -3.1535797 1.45
2.3451395 -3.0537391 1.55
2.2451398 -3.0535798 1.55
2.3449802 -3.153739 1.55
2.1451399 -3.0534205 1.45
2.04514 -3.0532613 1.45
2.1449807 -3.1534204 1.45
2.0449808 -3.1532612 1.45
2.1451399 -3.0534205 1.55
2.04514 -3.0532613 1.55
2.1449807 -3.1534204 1.55
2.0449808 -3.1532612 1.55
1.9451401 -3.053102 1.55
1.9449809 -3.1531019 1.55
1.4473704 -1.6523074 0.050000001
1.4472111 -1.7523072 0.050000001
1.4473704 -1.6523074 0.15000001
1.4472111 -1.7523072 0.15000001
1.2473707 -1.6519889 0.050000001
1.2472115 -1.7519886 0.050000001
1.2473707 -1.6519889 0.15000001
1.2472115 -1.7519886 0.15000001
1.4470519 -1.8523071 0.050000001
1.4470519 -1.8523071 0.15000001
1.2470522 -1.8519886 0.050000001
1.2468929 -1.9519885 0.050000001
1.2470522 -1.8519886 0.15000001
1.4472111 -1.7523072 0.25
1.4473704 -1.6523074 0.34999999
1.4472111 -1.7523072 0.34999999
1.2473707 -1.6519889 0.25
1.2472115 -1.7519886 0.25
1.2473707 -1.6519889 0.34999999
1.2472115 -1.7519886 0.34999999
1.2470522 -1.8519886 0.25
1.2470522 -1.8519886 0.34999999
1.1473708 -1.6518296 0.050000001
1.1472116 -1.7518294 0.050000001
1.1473708 -1.6518296 0.15000001
1.1472116 -1.7518294 0.15000001
1.1470523 -1.8518293 0.050000001
1.146893 -1.9518292 0.050000001
1.0468931 -1.9516699 0.050000001
1.1470523 -1.8518293 0.15000001
1.1473708 -1.6518296 0.25
1.1472116 -1.7518294 0.25
1.1473708 -1.6518296 0.34999999
1.1472116 -1.7518294 0.34999999
1.1470523 -1.8518293 0.25
1.1470523 -1.8518293 0.34999999
1.2467337 -2.0519884 0.050000001
1.1467338 -2.0518291 0.050000001
1.1465745 -2.151829 0.050000001
1.4473704 -1.6523074 0.44999999
1.4472111 -1.7523072 0.44999999
1.4473704 -1.6523074 0.55000001
1.4472111 -1.7523072 0.55000001
1.2473707 -1.6519889 0.44999999
1.2472115 -1.7519886 0.44999999
1.2473707 -1.6519889 0.55000001
1.2472115 -1.7519886 0.55000001
1.4470519 -1.8523071 0.55000001
1.2470522 -1.8519886 0.44999999
1.2468929 -1.9519885 0.44999999
1.2470522 -1.8519886 0.55000001
1.2468929 -1.9519885 0.55000001
1.4473704 -1.6523074 0.64999998
1.2473707 -1.6519889 0.64999998
1.2472115 -1.7519886 0.64999998
1.2470522 -1.8519886 0.64999998
1.2468929 -1.9519885 0.64999998
1.1473708 -1.6518296 0.44999999
1.1472116 -1.7518294 0.44999999
1.1473708 -1.6518296 0.55000001
1.1472116 -1.7518294 0.55000001
1.1470523 -1.8518293 0.44999999
1.1470523 -1.8518293 0.55000001
1.0468931 -1.9516699 0.55000001
0.3473717 -1.6505555 0.050000001
0.24737182 -1.6503962 0.050000001
0.34721243 -1.7505553 0.050000001
0.24721256 -1.750396 0.050000001
0.3473717 -1.6505555 0.15000001
0.24737182 -1.6503962 0.15000001
0.34721243 -1.7505553 0.15000001
0.24721256 -1.750396 0.15000001
0.14737195 -1.650237 0.050000001
0.14721268 -1.7502367 0.050000001
0.14737195 -1.650237 0.15000001
0.14721268 -1.7502367 0.15000001
0.34705317 -1.8505552 0.050000001
0.2470533 -1.8503959 0.050000001
0.34689391 -1.9505551 0.050000001
0.24689403 -1.9503958 0.050000001
0.34705317 -1.8505552 0.15000001
0.2470533 -1.8503959 0.15000001
0.14705342 -1.8502367 0.050000001
0.3473717 -1.6505555 0.25
0.24737182 -1.6503962 0.25
0.34721243 -1.7505553 0.25
0.24721256 -1.750396 0.25
0.3473717 -1.6505555 0.34999999
0.24737182 -1.6503962 0.34999999
0.34721243 -1.7505553 0.34999999
0.24721256 -1.750396 0.34999999
0.14737195 -1.650237 0.25
0.14721268 -1.7502367 0.25
0.14737195 -1.650237 0.34999999
0.14721268 -1.7502367 0.34999999
0.34705317 -1.8505552 0.25
0.2470533 -1.8503959 0.25
0.34705317 -1.8505552 0.34999999
0.2470533 -1.8503959 0.34999999
0.44673452 -2.0507143 0.050000001
0.44657525 -2.1507142 0.050000001
0.64641571 -2.2510326 0.050000001
0.44641599 -2.2507141 0.050000001
0.5462566 -2.350873 0.050000001
0.34673464 -2.050555 0.050000001
0.34657538 -2.1505549 0.050000001
0.3473717 -1.6505555 0.44999999
0.24737182 -1.6503962 0.44999999
0.34721243 -1.7505553 0.44999999
0.24721256 -1.750396 0.44999999
0.3473717 -1.6505555 0.55000001
0.24737182 -1.6503962 0.55000001
0.34721243 -1.7505553 0.55000001
0.24721256 -1.750396 0.55000001
0.14737195 -1.650237 0.44999999
0.14721268 -1.7502367 0.44999999
0.14737195 -1.650237 0.55000001
0.14721268 -1.7502367 0.55000001
0.34705317 -1.8505552 0.44999999
0.34705317 -1.8505552 0.55000001
0.34721243 -1.7505553 0.64999998
0.24721256 -1.750396 0.64999998
0.14737195 -1.650237 0.64999998
0.14721268 -1.7502367 0.64999998
0.8456192 -2.7513504 0.050000001
0.94530052 -2.9515095 0.050000001
0.84530067 -2.9513502 0.050000001
0.84530067 -2.9513502 0.15000001
0.94514126 -3.0515094 0.25
0.84530067 -2.9513502 0.44999999
0.84514141 -3.0513501 0.55000001
0.84530067 -2.9513502 0.75
0.64609718 -2.4510324 0.050000001
0.64593792 -2.5510321 0.050000001
0.74577856 -2.6511915 0.050000001
0.54561955 -2.7508726 0.050000001
0.44561964 -2.7507133 0.050000001
0.1457793 -2.6502359 0.34999999
0.14562003 -2.7502356 0.34999999
0.64546013 -2.8510318 0.050000001
0.74530077 -2.9511909 0.050000001
0.64530087 -2.9510317 0.050000001
0.74530077 -2.9511909 0.15000001
0.64530087 -2.9510317 0.15000001
0.54546028 -2.8508725 0.050000001
0.44546038 -2.8507133 0.050000001
0.54530102 -2.9508724 0.050000001
0.44530112 -2.9507132 0.050000001
0.54546028 -2.8508725 0.15000001
0.44546038 -2.8507133 0.15000001
0.54530102 -2.9508724 0.15000001
0.44530112 -2.9507132 0.15000001
0.6451416 -3.0510316 0.050000001
0.64498234 -3.1510315 0.050000001
0.54514176 -3.0508723 0.050000001
0.44514185 -3.0507131 0.050000001
0.54498249 -3.1508722 0.050000001
0.44498259 -3.150713 0.050000001
0.54514176 -3.0508723 0.15000001
0.44514185 -3.0507131 0.15000001
0.54498249 -3.1508722 0.15000001
0.44498259 -3.150713 0.15000001
0.64546013 -2.8510318 0.25
0.74530077 -2.9511909 0.25
0.64530087 -2.9510317 0.25
0.74530077 -2.9511909 0.34999999
0.64530087 -2.9510317 0.34999999
0.44546038 -2.8507133 0.25
0.54530102 -2.9508724 0.25
0.44530112 -2.9507132 0.25
0.44546038 -2.8507133 0.34999999
0.54530102 -2.9508724 0.34999999
0.44530112 -2.9507132 0.34999999
0.6451416 -3.0510316 0.25
0.6451416 -3.0510316 0.34999999
0.54514176 -3.0508723 0.25
0.44514185 -3.0507131 0.25
0.54498249 -3.1508722 0.25
0.44498259 -3.150713 0.25
0.54514176 -3.0508723 0.34999999
0.44514185 -3.0507131 0.34999999
0.54498249 -3.1508722 0.34999999
