# .PCD v0.7 - Point Cloud Data file format
VERSION 0.7
FIELDS x y z
SIZE 4 4 4
TYPE F F F
COUNT 1 1 1
WIDTH 1624
HEIGHT 1
VIEWPOINT 0 0 0 1 0 0 0
POINTS 1624
DATA ascii
-4.3414741 5.3569217 -2.45
-4.5411558 5.55724 -2.6500001
-4.4413147 5.4570804 -2.6500001
-4.441474 5.3570809 -2.6500001
-4.7414737 5.3575587 -2.75
-4.641633 5.2573996 -2.6500001
-4.4413147 5.4570804 -2.45
-4.3422704 4.8569221 -2.75
-4.0417933 5.1564441 -2.45
-4.3421111 4.9569221 -2.45
-4.2422705 4.8567629 -2.45
-4.6419516 5.0573997 -2.75
-4.442111 4.9570813 -2.75
-4.5421114 4.9572406 -2.75
-4.4422703 4.8570814 -2.6500001
-4.4419518 5.0570812 -2.55
-4.7419515 5.057559 -2.45
-3.5409973 5.6556473 -2.25
-3.6405196 5.9558058 -2.3499999
-3.9403598 6.056284 -1.95
-3.9403598 6.056284 -1.85
-3.9405191 5.9562836 -1.95
-4.0398822 6.3564425 -2.05
-4.7409959 5.6575584 -2.05
-4.0398822 6.3564425 -1.95
-4.1398821 6.3566017 -1.95
-4.0400414 6.2564425 -1.95
-4.0402007 6.1564431 -1.95
-4.7408366 5.7575583 -1.75
-4.7409959 5.6575584 -1.75
-4.7409959 5.6575584 -1.65
-3.9414747 5.3562846 -2.3499999
-3.8417933 5.1561255 -2.3499999
-3.8419526 5.0561256 -2.3499999
-3.9419525 5.0562849 -2.3499999
-3.8419526 5.0561256 -2.25
-3.7422712 4.8559666 -2.25
-3.942271 4.8562851 -2.25
-3.7421119 4.9559665 -2.1500001
-3.4414754 5.3554883 -1.75
-3.4416347 5.2554884 -1.75
-3.4414754 5.3554883 -1.65
-3.5414751 5.3556476 -1.65
-3.4416347 5.2554884 -1.65
-3.3417938 5.1553292 -1.65
-3.2419534 5.0551701 -1.65
-3.341953 5.0553293 -1.65
-3.4417939 5.1554885 -1.65
-4.2413149 5.4567618 -2.3499999
-4.0414748 5.3564439 -2.3499999
-4.2416334 5.2567625 -2.3499999
-4.7416329 5.2575588 -2.3499999
-4.7413144 5.4575582 -2.1500001
-4.6411552 5.5573993 -2.05
-4.6413145 5.4573989 -2.05
-4.5414743 5.3572402 -2.05
-4.6414738 5.3573995 -2.1500001
-4.7416329 5.2575588 -2.05
-4.2422705 4.8567629 -2.3499999
-4.3422704 4.8569221 -2.25
-4.7419515 5.057559 -2.3499999
-4.6417923 5.1573997 -2.25
-4.5422707 4.8572407 -2.25
-4.6421108 4.9573998 -2.3499999
-4.7421107 4.9575591 -2.3499999
-4.6421108 4.9573998 -2.25
-4.7421107 4.9575591 -2.25
-4.6422701 4.8573999 -2.25
-4.4419518 5.0570812 -2.05
-4.4422703 4.8570814 -2.1500001
-4.5413151 5.4572396 -1.95
-4.5414743 5.3572402 -1.95
-4.7416329 5.2575588 -1.85
-4.6411552 5.5573993 -1.65
-4.7411551 5.5575585 -1.65
-4.3417926 5.1569219 -1.95
-4.3417926 5.1569219 -1.85
-4.142271 4.8566036 -1.85
-4.2422705 4.8567629 -1.95
-4.5419521 5.0572405 -1.95
-4.7417922 5.1575589 -1.95
-4.6419516 5.0573997 -1.95
-4.6419516 5.0573997 -1.85
-4.5421114 4.9572406 -1.95
-4.5421114 4.9572406 -1.85
-4.4422703 4.8570814 -1.85
-5.1398807 6.3581944 -3.05
-5.04004 6.2580352 -3.05
-4.9401994 6.1578765 -2.95
-5.4401984 6.1586728 -3.1500001
-5.4403577 6.0586729 -3.1500001
-5.5403581 6.0588322 -3.1500001
-5.5398803 6.3588314 -2.95
-5.4400392 6.2586722 -2.95
-5.2403584 6.0583544 -2.8499999
-5.3403583 6.0585136 -2.8499999
-5.4401984 6.1586728 -2.8499999
-5.140677 5.8581948 -3.1500001
-5.140677 5.8581948 -3.05
-5.0409956 5.6580362 -3.1500001
-5.0409956 5.6580362 -3.05
-4.840518 5.9577169 -2.8499999
-4.9409957 5.657877 -2.8499999
-5.2405176 5.958354 -3.1500001
-5.3405175 5.9585133 -3.1500001
-5.2406769 5.8583541 -3.1500001
-5.2406769 5.8583541 -3.05
-5.5405173 5.9588318 -3.05
-5.4406762 5.8586726 -3.05
-5.340836 5.7585139 -3.05
-5.3406768 5.8585134 -2.8499999
-5.5405173 5.9588318 -2.95
-5.4405169 5.9586725 -2.8499999
-5.5408359 5.7588325 -2.8499999
-5.5409951 5.6588326 -2.8499999
-5.3400397 6.258513 -2.75
-5.4398799 6.3586721 -2.75
-5.5398803 6.3588314 -2.6500001
-5.3403583 6.0585136 -2.75
-5.340199 6.1585135 -2.6500001
-5.2403584 6.0583544 -2.6500001
-5.4400392 6.2586722 -2.55
-5.4400392 6.2586722 -2.45
-5.2403584 6.0583544 -2.45
-5.140677 5.8581948 -2.75
-5.1405177 5.9581947 -2.6500001
-5.0408363 5.7580361 -2.75
-5.1408362 5.7581954 -2.75
-5.0409956 5.6580362 -2.6500001
-5.0406771 5.8580356 -2.55
-4.9409957 5.657877 -2.45
-5.2405176 5.958354 -2.75
-5.2406769 5.8583541 -2.75
-5.3406768 5.8585134 -2.75
-5.5405173 5.9588318 -2.75
-5.4406762 5.8586726 -2.75
-5.340836 5.7585139 -2.6500001
-5.6398802 6.3589907 -3.05
-5.8398795 6.3593092 -3.05
-5.8400388 6.2593093 -3.05
-5.7401986 6.1591506 -3.1500001
-5.640358 6.0589914 -3.1500001
-5.7403579 6.0591507 -3.1500001
-5.7401986 6.1591506 -3.05
-5.7400393 6.25915 -2.95
-5.8398795 6.3593092 -2.95
-5.9400387 6.2594686 -2.8499999
-5.6401987 6.1589913 -2.95
-5.7401986 6.1591506 -2.95
-5.7401986 6.1591506 -2.8499999
-5.640358 6.0589914 -2.8499999
-5.6406765 5.8589911 -2.95
-5.7406764 5.8591504 -2.95
-5.6408358 5.7589917 -2.95
-5.8398795 6.3593092 -2.6500001
-5.9398794 6.3594685 -2.6500001
-5.9401979 6.1594691 -2.75
-5.8403573 6.05931 -2.75
-5.7400393 6.25915 -2.55
-5.7398801 6.3591499 -2.45
-5.6400394 6.2589908 -2.45
-5.7400393 6.25915 -2.45
-5.8400388 6.2593093 -2.55
-5.8400388 6.2593093 -2.45
-5.9400387 6.2594686 -2.45
-5.640358 6.0589914 -2.45
-6.0398798 6.3596277 -2.55
-4.8413143 5.4577174 -3.05
-4.941155 5.5578771 -2.95
-4.9413142 5.4578767 -2.95
-5.141314 5.4581952 -2.95
-4.8414736 5.357718 -2.95
-4.8414736 5.357718 -2.8499999
-5.0414734 5.3580365 -2.8499999
-5.441154 5.5586734 -2.8499999
-4.8413143 5.4577174 -2.75
-4.941155 5.5578771 -2.6500001
-4.8413143 5.4577174 -2.6500001
-5.0411549 5.5580363 -2.6500001
-5.1411548 5.5581956 -2.6500001
-5.141314 5.4581952 -2.6500001
-5.0414734 5.3580365 -2.6500001
-5.1416326 5.2581959 -2.6500001
-4.941155 5.5578771 -2.45
-4.9413142 5.4578767 -2.45
-5.1411548 5.5581956 -2.55
-5.0413141 5.4580359 -2.55
-4.8414736 5.357718 -2.55
-4.9414735 5.3578773 -2.55
-4.9416327 5.2578773 -2.55
-4.9416327 5.2578773 -2.45
-5.0414734 5.3580365 -2.55
-5.3413138 5.4585137 -2.75
-5.2414732 5.358355 -2.75
-5.3413138 5.4585137 -2.45
-4.8417921 5.1577182 -2.45
-5.1401992 6.158195 -2.3499999
-5.3398805 6.3585129 -2.3499999
-5.2400398 6.2583537 -2.3499999
-5.2398806 6.3583536 -2.25
-5.2400398 6.2583537 -2.25
-5.4398799 6.3586721 -2.3499999
-5.5398803 6.3588314 -2.3499999
-5.2401991 6.1583543 -2.3499999
-5.2403584 6.0583544 -2.25
-5.5401988 6.1588321 -2.3499999
-5.4403577 6.0586729 -2.3499999
-5.5401988 6.1588321 -2.25
-5.4403577 6.0586729 -2.25
-5.5403581 6.0588322 -2.1500001
-5.0405178 5.9580355 -2.25
-4.9408364 5.7578769 -2.3499999
-4.9409957 5.657877 -2.3499999
-4.9409957 5.657877 -2.25
-4.9405179 5.9578762 -2.1500001
-4.9406772 5.8578763 -2.1500001
-5.1405177 5.9581947 -2.1500001
-5.140677 5.8581948 -2.1500001
-4.9409957 5.657877 -2.1500001
-4.9409957 5.657877 -2.05
-5.0408363 5.7580361 -2.1500001
-5.0409956 5.6580362 -2.1500001
-5.1409955 5.6581955 -2.05
-5.3405175 5.9585133 -2.3499999
-5.2405176 5.958354 -2.25
-5.3405175 5.9585133 -2.25
-5.2406769 5.8583541 -2.25
-5.4406762 5.8586726 -2.25
-5.340836 5.7585139 -2.3499999
-5.340836 5.7585139 -2.25
-5.3406768 5.8585134 -2.1500001
-5.5405173 5.9588318 -2.1500001
-5.4406762 5.8586726 -2.1500001
-5.5406766 5.8588319 -2.1500001
-5.4405169 5.9586725 -2.05
-5.4406762 5.8586726 -2.05
-5.2408361 5.7583547 -2.1500001
-5.2409954 5.6583548 -2.1500001
-5.340836 5.7585139 -2.05
-5.2409954 5.6583548 -2.05
-5.3409953 5.658514 -2.05
-5.4408355 5.7586732 -2.1500001
-5.0403585 6.0580359 -1.85
-5.1403584 6.0581951 -1.85
-5.0398808 6.3580351 -1.65
-5.1401992 6.158195 -1.75
-5.0403585 6.0580359 -1.75
-5.1403584 6.0581951 -1.75
-5.3398805 6.3585129 -1.95
-5.2398806 6.3583536 -1.85
-5.3398805 6.3585129 -1.85
-5.2400398 6.2583537 -1.85
-5.2401991 6.1583543 -1.85
-5.2400398 6.2583537 -1.65
-5.4398799 6.3586721 -1.65
-5.5401988 6.1588321 -1.65
-5.4403577 6.0586729 -1.65
-5.0405178 5.9580355 -1.85
-4.9405179 5.9578762 -1.75
-4.9406772 5.8578763 -1.75
-4.9406772 5.8578763 -1.65
-4.8408365 5.7577176 -1.75
-4.8409958 5.6577177 -1.75
-4.8408365 5.7577176 -1.65
-4.8409958 5.6577177 -1.65
-5.6398802 6.3589907 -2.3499999
-5.6400394 6.2589908 -2.3499999
-5.7401986 6.1591506 -2.3499999
-5.640358 6.0589914 -2.3499999
-5.7403579 6.0591507 -2.3499999
-5.640358 6.0589914 -2.1500001
-5.6405172 5.9589911 -2.1500001
-5.6398802 6.3589907 -1.65
-5.7398801 6.3591499 -1.65
-5.6400394 6.2589908 -1.65
-5.9398794 6.3594685 -1.75
-5.8400388 6.2593093 -1.75
-4.8411551 5.5577178 -2.25
-4.8414736 5.357718 -2.3499999
-4.941155 5.5578771 -2.1500001
-4.8411551 5.5577178 -2.05
-4.9413142 5.4578767 -2.05
-5.0411549 5.5580363 -2.1500001
-5.0411549 5.5580363 -2.05
-5.0413141 5.4580359 -2.05
-4.9416327 5.2578773 -2.1500001
-4.9414735 5.3578773 -2.05
-4.8416328 5.2577181 -2.05
-5.0414734 5.3580365 -2.1500001
-5.0414734 5.3580365 -2.05
-5.2411547 5.5583549 -2.1500001
-5.2411547 5.5583549 -2.05
-4.8417921 5.1577182 -2.3499999
-4.941792 5.1578774 -2.3499999
-4.8419514 5.0577183 -2.3499999
-4.9419513 5.0578775 -2.25
-5.1411548 5.5581956 -1.95
-5.0413141 5.4580359 -1.95
-4.8414736 5.357718 -1.85
-4.8416328 5.2577181 -1.85
-3.5427492 4.5556488 -3.05
-3.5427492 4.5556488 -2.95
-3.4429088 4.4554892 -2.95
-3.9425895 4.6562853 -3.1500001
-3.9424303 4.7562852 -3.05
-3.7429082 4.4559669 -3.05
-3.9427488 4.5562859 -3.1500001
-3.8427489 4.5561266 -3.05
-3.8429081 4.4561262 -3.05
-3.942908 4.4562855 -3.05
-3.8425896 4.656126 -2.95
-3.9424303 4.7562852 -2.8499999
-3.9425895 4.6562853 -2.8499999
-3.742749 4.5559673 -2.95
-3.7429082 4.4559669 -2.95
-3.6429086 4.4558077 -2.8499999
-3.7429082 4.4559669 -2.8499999
-3.8427489 4.5561266 -2.95
-3.9427488 4.5562859 -2.95
-3.942908 4.4562855 -2.95
-3.8427489 4.5561266 -2.8499999
-3.9427488 4.5562859 -2.8499999
-3.942908 4.4562855 -2.8499999
-3.3432271 4.2553301 -2.8499999
-3.443068 4.3554893 -2.95
-3.5430677 4.3556485 -2.8499999
-3.543227 4.2556486 -2.8499999
-3.5433862 4.1556492 -2.8499999
-3.9430673 4.3562856 -3.05
-3.6430678 4.3558078 -2.95
-3.7430675 4.355967 -2.95
-3.6430678 4.3558078 -2.8499999
-3.6432271 4.2558079 -2.8499999
-3.8432267 4.2561264 -2.95
-3.8430674 4.3561263 -2.8499999
-3.9430673 4.3562856 -2.8499999
-3.8432267 4.2561264 -2.8499999
-3.743386 4.1559677 -2.95
-3.743386 4.1559677 -2.8499999
-3.5424306 4.7556481 -2.6500001
-3.3424308 4.7553296 -2.45
-3.2425904 4.6551704 -2.45
-3.3425901 4.6553297 -2.45
-3.442431 4.7554889 -2.45
-3.7429082 4.4559669 -2.75
-3.8429081 4.4561262 -2.75
-3.942908 4.4562855 -2.75
-3.4435458 4.05549 -2.75
-3.3435457 4.0553308 -2.55
-3.7430675 4.355967 -2.75
-3.7432268 4.2559671 -2.6500001
-3.8432267 4.2561264 -2.75
-3.6433864 4.1558084 -2.75
-3.6435456 4.0558085 -2.75
-3.8433859 4.156127 -2.75
-3.9433858 4.1562862 -2.75
-3.8433859 4.156127 -2.6500001
-3.8435452 4.0561271 -2.6500001
-3.9430673 4.3562856 -2.55
-3.9432266 4.2562857 -2.55
-4.0424304 4.7564445 -3.1500001
-4.1424303 4.7566037 -3.1500001
-4.0425897 4.6564445 -3.1500001
-4.1425896 4.6566038 -3.1500001
-4.0424304 4.7564445 -3.05
-4.1424303 4.7566037 -3.05
-4.0425897 4.6564445 -3.05
-4.1425896 4.6566038 -3.05
-4.2424297 4.756763 -3.1500001
-4.3425889 4.6569223 -3.1500001
-4.242589 4.6567631 -3.05
-4.0429082 4.4564447 -3.1500001
-4.0427489 4.5564451 -3.05
-4.2427483 4.5567636 -3.05
-4.1424303 4.7566037 -2.8499999
-4.1425896 4.6566038 -2.8499999
-4.2424297 4.756763 -2.95
-4.2424297 4.756763 -2.8499999
-4.0427489 4.5564451 -2.95
-4.1427488 4.5566044 -2.95
-4.0427489 4.5564451 -2.8499999
-4.0429082 4.4564447 -2.8499999
-4.2427483 4.5567636 -2.95
-4.4424295 4.7570815 -3.1500001
-4.0430675 4.3564448 -2.8499999
-4.0425897 4.6564445 -2.75
-4.1425896 4.6566038 -2.75
-4.1425896 4.6566038 -2.6500001
-4.3424296 4.7569222 -2.75
-4.242589 4.6567631 -2.6500001
-4.0427489 4.5564451 -2.75
-4.1427488 4.5566044 -2.6500001
-4.3424296 4.7569222 -2.55
-4.242589 4.6567631 -2.55
-4.0429082 4.4564447 -2.55
-4.1429081 4.456604 -2.55
-4.0427489 4.5564451 -2.45
-4.1427488 4.5566044 -2.45
-4.0432267 4.2564449 -2.75
-4.0430675 4.3564448 -2.55
-4.1430674 4.3566041 -2.45
-4.0432267 4.2564449 -2.45
-3.543864 3.8556492 -2.8499999
-3.6438642 3.8558085 -2.8499999
-3.3437049 3.9553306 -2.75
-3.3437049 3.9553306 -2.6500001
-3.2438645 3.8551714 -2.6500001
-3.3438642 3.8553307 -2.6500001
-3.5437047 3.9556491 -2.6500001
-3.543864 3.8556492 -2.6500001
-3.4440236 3.7554901 -2.75
-3.4441829 3.6554904 -2.75
-3.3437049 3.9553306 -2.55
-3.4438643 3.85549 -2.55
-3.3440235 3.7553308 -2.55
-3.3440235 3.7553308 -2.45
-3.2441831 3.6551719 -2.45
-3.3441827 3.6553311 -2.45
-3.5441825 3.6556497 -2.45
-3.7438638 3.8559678 -2.6500001
-3.8437045 3.9561269 -2.6500001
-3.7437046 3.9559677 -2.55
-3.6437049 3.9558084 -2.45
-3.6438642 3.8558085 -2.45
-3.6440234 3.7558086 -2.55
-3.344342 3.555331 -2.6500001
-3.2427497 4.555171 -2.3499999
-3.3427494 4.5553303 -2.3499999
-3.242909 4.4551706 -2.3499999
-3.5425899 4.6556482 -2.05
-3.6424308 4.7558074 -2.1500001
-3.9424303 4.7562852 -2.1500001
-3.8425896 4.656126 -2.05
-3.742749 4.5559673 -2.05
-3.6429086 4.4558077 -2.05
-3.7429082 4.4559669 -2.05
-3.8427489 4.5561266 -2.1500001
-3.3433864 4.1553307 -2.25
-3.243546 4.0551715 -2.25
-3.3435457 4.0553308 -2.25
-3.4433866 4.1554899 -2.25
-3.8430674 4.3561263 -2.3499999
-3.9430673 4.3562856 -2.3499999
-3.9432266 4.2562857 -2.3499999
-3.743386 4.1559677 -2.25
-3.9433858 4.1562862 -2.3499999
-3.8435452 4.0561271 -2.3499999
-3.8433859 4.156127 -2.25
-3.6429086 4.4558077 -1.95
-3.5430677 4.3556485 -1.95
-3.4432273 4.2554893 -1.95
-3.543227 4.2556486 -1.95
-3.3435457 4.0553308 -1.95
-3.3435457 4.0553308 -1.85
-3.4433866 4.1554899 -1.95
-3.5433862 4.1556492 -1.85
-3.4435458 4.05549 -1.85
-3.4435458 4.05549 -1.75
-3.9433858 4.1562862 -1.95
-3.8435452 4.0561271 -1.95
-3.9435451 4.0562863 -1.95
-3.8435452 4.0561271 -1.85
-3.6433864 4.1558084 -1.65
-3.9433858 4.1562862 -1.65
-3.8435452 4.0561271 -1.65
-3.9435451 4.0562863 -1.65
-4.1424303 4.7566037 -2.3499999
-4.3425889 4.6569223 -2.25
-4.3425889 4.6569223 -2.1500001
-4.3427482 4.5569229 -2.1500001
-4.2429075 4.4567633 -2.05
-4.5424299 4.7572408 -2.25
-4.4424295 4.7570815 -2.1500001
-4.5424299 4.7572408 -2.1500001
-4.4425888 4.6570816 -2.1500001
-4.1430674 4.3566041 -2.05
-4.3424296 4.7569222 -1.85
-4.0429082 4.4564447 -1.95
-4.3424296 4.7569222 -1.75
-4.242589 4.6567631 -1.75
-4.3425889 4.6569223 -1.75
-4.4424295 4.7570815 -1.85
-3.2437053 3.9551713 -2.25
-3.543864 3.8556492 -2.3499999
-3.543864 3.8556492 -2.25
-3.4440236 3.7554901 -2.3499999
-3.2437053 3.9551713 -2.1500001
-3.543864 3.8556492 -2.1500001
-3.2443423 3.5551717 -2.3499999
-3.3437049 3.9553306 -1.85
-3.2438645 3.8551714 -1.85
-3.3437049 3.9553306 -1.75
-3.2438645 3.8551714 -1.75
-3.2440238 3.7551715 -1.75
-3.5441825 3.6556497 -1.75
-3.7437046 3.9559677 -1.85
-3.7438638 3.8559678 -1.85
-3.8437045 3.9561269 -1.85
-3.6440234 3.7558086 -1.75
-3.3445013 3.4553313 -1.65
-3.4443421 3.5554903 -1.75
-3.5443418 3.5556495 -1.75
-3.4443421 3.5554903 -1.65
-3.4445014 3.4554906 -1.65
-3.2446609 3.3551719 -1.65
-3.3446605 3.3553312 -1.65
-4.7403588 6.0575581 -1.55
-4.540678 5.8572392 -1.45
-4.6406775 5.8573985 -1.55
-4.7405181 5.9575577 -1.45
-4.6406775 5.8573985 -1.45
-4.5408373 5.7572398 -1.45
-3.341953 5.0553293 -1.55
-3.2421126 4.9551702 -1.55
-3.2422719 4.8551702 -1.55
-4.5413151 5.4572396 -1.55
-4.6413145 5.4573989 -1.55
-4.6422701 4.8573999 -1.05
-4.442111 4.9570813 -0.34999999
-4.4422703 4.8570814 -0.34999999
-4.9398808 6.3578758 -1.55
-4.9400401 6.2578759 -1.55
-4.8400402 6.2577167 -1.45
-5.0398808 6.3580351 -1.55
-4.8401995 6.1577172 -1.55
-4.8403587 6.0577173 -1.55
-4.8401995 6.1577172 -1.45
-5.0398808 6.3580351 -1.25
-5.1398807 6.3581944 -1.25
-5.04004 6.2580352 -1.25
-5.0401993 6.1580358 -1.25
-5.2406769 5.8583541 -1.55
-5.2408361 5.7583547 -1.55
-5.0398808 6.3580351 -1.15
-5.9398794 6.3594685 -1.45
-5.8400388 6.2593093 -1.45
-5.7403579 6.0591507 -1.45
-5.840198 6.1593099 -1.45
-5.8400388 6.2593093 -1.05
-5.7401986 6.1591506 -1.05
-4.9416327 5.2578773 -1.25
-5.2411547 5.5583549 -1.25
-4.8417921 5.1577182 -1.25
-5.141314 5.4581952 -1.15
-5.2411547 5.5583549 -1.15
-5.2411547 5.5583549 -0.94999999
-5.5401988 6.1588321 -0.64999998
-5.3405175 5.9585133 -0.55000001
-5.2406769 5.8583541 -0.55000001
-5.4405169 5.9586725 -0.55000001
-5.5405173 5.9588318 -0.44999999
-5.6398802 6.3589907 -0.64999998
-5.9400387 6.2594686 -0.44999999
-6.0398798 6.3596277 -0.44999999
-6.1398797 6.359787 -0.44999999
-5.0411549 5.5580363 -0.55000001
-3.3429086 4.4553299 -1.55
-3.3427494 4.5553303 -1.45
-3.3429086 4.4553299 -1.45
-3.4427495 4.5554895 -1.55
-3.4429088 4.4554892 -1.55
-3.3432271 4.2553301 -1.55
-3.2430682 4.3551707 -1.45
-3.3430679 4.35533 -1.45
-3.8435452 4.0561271 -1.55
-3.3438642 3.8553307 -1.55
-3.5440233 3.7556493 -1.45
-3.4441829 3.6554904 -1.45
-3.5441825 3.6556497 -1.45
-3.2440238 3.7551715 -1.35
-3.5440233 3.7556493 -1.35
-3.4441829 3.6554904 -1.35
-3.6437049 3.9558084 -1.55
-3.7437046 3.9559677 -1.55
-3.6438642 3.8558085 -1.55
-3.7438638 3.8559678 -1.55
-3.7437046 3.9559677 -1.45
-3.6438642 3.8558085 -1.45
-3.8437045 3.9561269 -1.55
-3.6440234 3.7558086 -1.55
-3.6440234 3.7558086 -1.45
-3.344342 3.555331 -1.55
-3.2446609 3.3551719 -1.55
-3.344342 3.555331 -1.35
-3.4443421 3.5554903 -1.35
-3.2443423 3.5551717 -1.15
-3.743386 4.1559677 -0.44999999
-3.8433859 4.156127 -0.44999999
-4.3424296 4.7569222 -0.34999999
-3.5440233 3.7556493 -0.75
-3.2446609 3.3551719 -0.64999998
-5.5435433 4.0588346 -0.64999998
-5.9430647 4.3594708 -0.75
-5.843224 4.2593117 -0.75
-5.943224 4.2594709 -0.75
-5.643384 4.1589937 -0.64999998
-5.7433839 4.159153 -0.64999998
-5.6435432 4.0589938 -0.64999998
-6.0430651 4.3596301 -0.75
-6.143065 4.3597894 -0.75
-0.14498296 3.1502352 -2.05
-0.74546003 2.851191 -2.05
-0.14498296 3.1502352 -1.95
-0.14514224 3.0502353 -1.95
-0.24498284 3.1503944 -1.95
-0.24514212 3.0503945 -1.95
-0.14530151 2.9502354 -1.85
-0.64546013 2.8510318 -1.95
-0.64561939 2.7510319 -1.95
-0.64561939 2.7510319 -1.85
-0.74577856 2.6511915 -1.65
-2.1449807 3.1534204 -2.25
-2.2449806 3.1535797 -2.25
-2.04514 3.0532613 -2.1500001
-2.1451399 3.0534205 -2.1500001
-2.1449807 3.1534204 -2.05
-2.0452993 2.9532614 -2.1500001
-2.0452993 2.9532614 -2.05
-2.0449808 3.1532612 -1.95
-2.04514 3.0532613 -1.95
-2.3460951 2.4537399 -1.75
-2.2460954 2.4535806 -1.65
-2.9451389 3.0546947 -2.3499999
-3.0449796 3.1548538 -2.05
-2.6449802 3.1542168 -1.95
-2.9451389 3.0546947 -1.95
-3.0449796 3.1548538 -1.95
-2.445936 2.5538988 -1.75
-2.4460952 2.4538991 -1.75
-2.0462549 2.3532619 -1.65
-2.0464141 2.2532623 -1.65
-2.2462547 2.3535805 -1.65
-2.0465734 2.1532624 -1.65
-0.74546003 2.851191 -1.25
-0.14562003 2.7502356 -1.35
-0.64561939 2.7510319 -1.55
-0.7456193 2.7511911 -1.55
-0.74577856 2.6511915 -1.55
-0.64609718 2.4510324 -1.55
-0.74546003 2.851191 -1.15
-0.64593792 2.5510321 -1.05
-0.74593782 2.5511913 -0.85000002
-1.0460968 2.4516695 -1.35
-0.94498199 3.1515093 -1.15
-1.5454592 2.8524652 -0.85000002
-0.94593757 2.5515099 -0.85000002
-1.1460967 2.4518287 -0.94999999
-1.2457781 2.6519878 -1.05
-1.5460962 2.4524658 -1.15
-0.14657563 2.1502364 -1.55
-0.64641571 2.2510326 -1.25
-0.64657497 2.1510327 -1.25
-0.34673464 2.050555 -0.85000002
-0.64641571 2.2510326 -1.05
-0.54657513 2.1508734 -1.15
-0.54673439 2.0508735 -1.05
-0.64673424 2.0510328 -1.15
-0.74657488 2.1511919 -1.05
-0.34689391 1.9505551 -0.85000002
-0.047372065 1.6500777 -0.85000002
-0.54689366 1.9508736 -1.05
-0.64705276 1.851033 -1.05
-0.54689366 1.9508736 -0.85000002
-0.64721209 1.7510331 -0.94999999
-1.5464147 2.252466 -1.45
-1.546574 2.1524661 -1.35
-1.4465741 2.1523068 -1.25
-1.4467334 2.0523069 -1.25
-1.1467338 2.0518291 -1.05
-0.94673389 2.0515106 -0.85000002
-1.0465746 2.1516697 -0.85000002
-1.4465741 2.1523068 -1.05
-1.546574 2.1524661 -1.05
-1.2465744 2.1519883 -0.85000002
-1.3465742 2.1521475 -0.85000002
-1.4467334 2.0523069 -0.94999999
-1.146893 1.9518292 -1.05
-0.94705242 1.8515108 -0.94999999
-1.5470518 1.8524663 -1.15
-1.3472112 1.7521479 -0.94999999
-1.4473704 1.6523074 -0.94999999
-0.3454605 2.850554 -0.15000001
-0.34530124 2.9505539 -0.050000001
-0.3454605 2.850554 -0.050000001
-0.54498249 3.1508722 -0.15000001
-0.44514185 3.0507131 -0.15000001
-0.54514176 3.0508723 -0.15000001
-0.44498259 3.150713 -0.050000001
-0.54498249 3.1508722 -0.050000001
-0.44514185 3.0507131 -0.050000001
-0.54514176 3.0508723 -0.050000001
-0.74498224 3.1511908 -0.15000001
-0.6451416 3.0510316 -0.15000001
-0.64498234 3.1510315 -0.050000001
-0.74498224 3.1511908 -0.050000001
-0.6451416 3.0510316 -0.050000001
-0.74514151 3.0511909 -0.050000001
-0.44546038 2.8507133 -0.15000001
-0.44530112 2.9507132 -0.050000001
-0.54530102 2.9508724 -0.050000001
-0.44546038 2.8507133 -0.050000001
-0.54546028 2.8508725 -0.050000001
-0.64530087 2.9510317 -0.050000001
-0.74530077 2.9511909 -0.050000001
-0.64546013 2.8510318 -0.050000001
-0.14562003 2.7502356 -0.15000001
-0.045779411 2.6500766 -0.15000001
-0.1457793 2.6502359 -0.15000001
-0.045779411 2.6500766 -0.050000001
-0.1457793 2.6502359 -0.050000001
-0.24561991 2.7503948 -0.15000001
-0.34561977 2.7505541 -0.15000001
-0.24577917 2.6503952 -0.15000001
-0.24561991 2.7503948 -0.050000001
-0.34561977 2.7505541 -0.050000001
-0.24577917 2.6503952 -0.050000001
-0.34577906 2.6505544 -0.050000001
-0.045938678 2.5500765 -0.15000001
-0.14593856 2.5502357 -0.15000001
-0.046097942 2.4500768 -0.15000001
-0.14609782 2.4502361 -0.15000001
-0.045938678 2.5500765 -0.050000001
-0.14593856 2.5502357 -0.050000001
-0.14609782 2.4502361 -0.050000001
-0.24593844 2.550395 -0.15000001
-0.2460977 2.4503953 -0.15000001
-0.24593844 2.550395 -0.050000001
-0.34593832 2.5505543 -0.050000001
-0.2460977 2.4503953 -0.050000001
-0.34609759 2.4505546 -0.050000001
-0.44609746 2.4507139 -0.25
-0.44561964 2.7507133 -0.050000001
-0.54561955 2.7508726 -0.050000001
-0.44577891 2.6507137 -0.050000001
-0.54577881 2.6508729 -0.050000001
-0.64561939 2.7510319 -0.050000001
-0.64577866 2.6510322 -0.050000001
-0.4459382 2.5507135 -0.050000001
-0.54593807 2.5508728 -0.050000001
-0.44609746 2.4507139 -0.050000001
-0.54609734 2.4508731 -0.050000001
-1.4457778 2.6523063 -0.75
-0.84498215 3.15135 -0.050000001
-0.94498199 3.1515093 -0.050000001
-0.84514141 3.0513501 -0.050000001
-1.1449819 3.1518278 -0.050000001
-1.0451412 3.0516686 -0.050000001
-1.1451411 3.0518279 -0.050000001
-0.84530067 2.9513502 -0.050000001
-1.0453005 2.9516687 -0.050000001
-1.0454597 2.8516688 -0.050000001
-1.1454597 2.8518281 -0.050000001
-1.2449818 3.1519871 -0.050000001
-1.3449816 3.1521463 -0.050000001
-1.245141 3.0519872 -0.050000001
-1.3451408 3.0521464 -0.050000001
-1.4449815 3.1523056 -0.050000001
-1.5449814 3.1524649 -0.050000001
-1.4451407 3.0523057 -0.050000001
-1.5451406 3.052465 -0.050000001
-1.2453003 2.9519873 -0.050000001
-1.3453001 2.9521465 -0.050000001
-1.2454596 2.8519874 -0.050000001
-1.3454593 2.8521466 -0.050000001
-1.4453 2.9523058 -0.050000001
-1.5452999 2.9524651 -0.050000001
-1.4454592 2.8523059 -0.050000001
-1.5454592 2.8524652 -0.050000001
-1.045619 2.7516689 -0.050000001
-1.1456189 2.7518282 -0.050000001
-1.0457783 2.6516693 -0.050000001
-1.1457782 2.6518285 -0.050000001
-0.94609684 2.4515102 -0.050000001
-1.0459375 2.5516691 -0.050000001
-1.1459374 2.5518284 -0.050000001
-1.0460968 2.4516695 -0.050000001
-1.1460967 2.4518287 -0.050000001
-1.2456188 2.7519875 -0.050000001
-1.3456186 2.7521467 -0.050000001
-1.2457781 2.6519878 -0.050000001
-1.3457779 2.6521471 -0.050000001
-1.4456185 2.752306 -0.050000001
-1.5456184 2.7524652 -0.050000001
-1.4457778 2.6523063 -0.050000001
-1.5457777 2.6524656 -0.050000001
-1.2459373 2.5519876 -0.050000001
-1.3459371 2.5521469 -0.050000001
-1.2460966 2.451988 -0.050000001
-1.3460964 2.4521472 -0.050000001
-1.445937 2.5523062 -0.050000001
-1.5459369 2.5524654 -0.050000001
-1.4460963 2.4523065 -0.050000001
-1.5460962 2.4524658 -0.050000001
-0.34689391 1.9505551 -0.75
-0.44689378 1.9507143 -0.75
-0.54689366 1.9508736 -0.75
-0.54689366 1.9508736 -0.64999998
-0.74705267 1.8511922 -0.75
-0.6468935 1.9510329 -0.64999998
-0.74689341 1.9511921 -0.64999998
-0.74705267 1.8511922 -0.64999998
-0.24625696 2.3503952 -0.15000001
-0.24625696 2.3503952 -0.050000001
-0.34625685 2.3505545 -0.050000001
-0.24641623 2.2503955 -0.050000001
-0.34641612 2.2505548 -0.050000001
-0.046575736 2.1500771 -0.050000001
-0.046735004 2.0500772 -0.050000001
-0.44625673 2.3507137 -0.050000001
-0.5462566 2.350873 -0.050000001
-0.44641599 2.2507141 -0.050000001
-0.54641587 2.2508733 -0.050000001
-0.44657525 2.1507142 -0.050000001
-0.54657513 2.1508734 -0.050000001
-0.54673439 2.0508735 -0.050000001
-0.046894267 1.9500773 -0.050000001
-0.047053535 1.8500774 -0.050000001
-0.047212798 1.7500775 -0.050000001
-0.047372065 1.6500777 -0.050000001
-0.54689366 1.9508736 -0.050000001
-0.74721199 1.7511923 -0.050000001
-0.74737126 1.6511925 -0.050000001
-0.94673389 2.0515106 -0.64999998
-1.1467338 2.0518291 -0.75
-1.1465745 2.151829 -0.55000001
-1.0467339 2.0516698 -0.55000001
-1.1467338 2.0518291 -0.55000001
-1.2465744 2.1519883 -0.75
-1.2465744 2.1519883 -0.64999998
-1.2467337 2.0519884 -0.55000001
-0.84689331 1.9513514 -0.75
-0.84705257 1.8513515 -0.75
-1.0472116 1.7516701 -0.64999998
-1.0473709 1.6516703 -0.64999998
-1.5472111 1.7524664 -0.64999998
-1.2468929 1.9519885 -0.55000001
-0.94641536 2.2515104 -0.15000001
-0.9462561 2.35151 -0.050000001
-0.94641536 2.2515104 -0.050000001
-1.0462561 2.3516693 -0.050000001
-1.146256 2.3518286 -0.050000001
-1.0464153 2.2516696 -0.050000001
-1.1464152 2.2518289 -0.050000001
-0.84657478 2.1513512 -0.15000001
-0.94657463 2.1515105 -0.15000001
-0.84673405 2.0513513 -0.15000001
-0.84657478 2.1513512 -0.050000001
-0.94657463 2.1515105 -0.050000001
-0.84673405 2.0513513 -0.050000001
-0.94673389 2.0515106 -0.050000001
-1.0465746 2.1516697 -0.050000001
-1.1465745 2.151829 -0.050000001
-1.0467339 2.0516698 -0.050000001
-1.1467338 2.0518291 -0.050000001
-1.2462559 2.3519878 -0.050000001
-1.2464151 2.2519882 -0.050000001
-1.3464149 2.2521474 -0.050000001
-1.4462556 2.3523064 -0.050000001
-1.5462555 2.3524656 -0.050000001
-1.4464148 2.2523067 -0.050000001
-1.5464147 2.252466 -0.050000001
-1.3467335 2.0521476 -0.15000001
-1.2465744 2.1519883 -0.050000001
-1.3465742 2.1521475 -0.050000001
-1.2467337 2.0519884 -0.050000001
-1.3467335 2.0521476 -0.050000001
-1.546574 2.1524661 -0.050000001
-1.4467334 2.0523069 -0.050000001
-1.5467333 2.0524662 -0.050000001
-0.84689331 1.9513514 -0.050000001
-0.94689316 1.9515107 -0.050000001
-0.84705257 1.8513515 -0.050000001
-0.94705242 1.8515108 -0.050000001
-1.0468931 1.9516699 -0.050000001
-1.146893 1.9518292 -0.050000001
-1.0470524 1.85167 -0.050000001
-1.1470523 1.8518293 -0.050000001
-0.8472119 1.7513516 -0.050000001
-0.94721174 1.7515109 -0.050000001
-0.84737116 1.6513518 -0.050000001
-0.94737101 1.6515111 -0.050000001
-1.0473709 1.6516703 -0.050000001
-1.2468929 1.9519885 -0.15000001
-1.2468929 1.9519885 -0.050000001
-1.3468927 1.9521477 -0.050000001
-1.2470522 1.8519886 -0.050000001
-2.3449802 3.153739 -1.55
-2.3449802 3.153739 -1.45
-2.3451395 3.0537391 -1.45
-2.2452991 2.9535799 -1.45
-2.3452988 2.9537392 -1.45
-1.6460961 2.452625 -1.25
-2.2460954 2.4535806 -1.55
-2.04514 3.0532613 -1.05
-1.6460961 2.452625 -1.15
-2.2459362 2.5535803 -1.05
-2.2460954 2.4535806 -1.05
-2.1460955 2.4534214 -0.94999999
-2.4449804 3.1538982 -1.55
-2.6451395 3.0542169 -1.35
-2.7449799 3.154376 -1.25
-2.6452987 2.954217 -1.35
-1.6464146 2.2526252 -1.45
-1.8464143 2.2529438 -1.45
-1.9464142 2.253103 -1.25
-1.8465736 2.1529438 -1.25
-2.2462547 2.3535805 -1.55
-2.3462543 2.3537397 -1.55
-2.3464136 2.2537401 -1.45
-2.0462549 2.3532619 -1.35
-1.8468921 1.952944 -1.55
-1.8468921 1.952944 -1.45
-1.7470515 1.8527849 -1.35
-1.6468924 1.9526255 -1.25
-1.946892 1.9531033 -1.35
-1.8470514 1.8529441 -1.35
-1.9470513 1.8531034 -1.35
-1.8470514 1.8529441 -1.25
-1.9470513 1.8531034 -1.25
-1.8462551 2.3529434 -0.85000002
-1.6468924 1.9526255 -1.15
-1.8460958 2.4529436 -0.44999999
-1.6449813 3.1526241 -0.050000001
-1.6451405 3.0526242 -0.050000001
-1.6452998 2.9526243 -0.050000001
-1.6454591 2.8526244 -0.050000001
-1.6456183 2.7526245 -0.050000001
-1.6457776 2.6526248 -0.050000001
-1.6459368 2.5526247 -0.15000001
-1.6459368 2.5526247 -0.050000001
-1.7459366 2.552784 -0.050000001
-1.6460961 2.452625 -0.050000001
-1.7460959 2.4527843 -0.050000001
-1.9459364 2.5531025 -0.050000001
-1.8460958 2.4529436 -0.050000001
-1.9460957 2.4531028 -0.050000001
-2.0459363 2.5532618 -0.050000001
-2.0460956 2.4532621 -0.050000001
-1.7462552 2.3527842 -0.44999999
-1.6462554 2.3526249 -0.050000001
-1.7462552 2.3527842 -0.050000001
-1.8462551 2.3529434 -0.050000001
-1.946255 2.3531027 -0.050000001
-1.8464143 2.2529438 -0.050000001
-1.6465739 2.1526253 -0.050000001
-1.7465737 2.1527846 -0.050000001
-1.6467332 2.0526254 -0.050000001
-1.746733 2.0527847 -0.050000001
-1.8465736 2.1529438 -0.050000001
-1.9465735 2.1531031 -0.050000001
-1.9467328 2.0531032 -0.050000001
-2.0462549 2.3532619 -0.050000001
-2.0465734 2.1532624 -0.050000001
-1.8468921 1.952944 -0.050000001
-1.946892 1.9531033 -0.050000001
-1.8470514 1.8529441 -0.050000001
-1.9470513 1.8531034 -0.050000001
-1.74737 1.6527852 -0.050000001
-1.8472106 1.7529442 -0.050000001
-1.9472106 1.7531035 -0.050000001
-1.8473699 1.6529444 -0.050000001
-1.9473698 1.6531037 -0.050000001
-2.0470512 1.8532627 -0.050000001
-2.0472105 1.7532628 -0.050000001
-2.0473697 1.653263 -0.050000001
-2.1473696 1.6534222 -0.050000001
-0.54769003 1.4508742 -1.05
-0.4476901 1.4507149 -0.94999999
-0.54769003 1.4508742 -0.94999999
-0.9478488 1.3515114 -0.94999999
-1.24753 1.551989 -1.05
-1.4476889 1.4523076 -0.85000002
-0.94816732 1.1515117 -0.85000002
-0.14800902 1.2502375 -0.55000001
-0.14800902 1.2502375 -0.44999999
-0.34784949 1.3505558 -0.55000001
-0.34800875 1.250556 -0.55000001
-0.34800875 1.250556 -0.44999999
-0.4476901 1.4507149 -0.64999998
-0.64800841 1.2510338 -0.64999998
-0.64768988 1.4510335 -0.55000001
-0.54800856 1.2508745 -0.44999999
-0.74784905 1.3511928 -0.55000001
-0.74800831 1.251193 -0.55000001
-0.34816802 1.1505561 -0.55000001
-0.34816802 1.1505561 -0.44999999
-0.048646186 0.85007864 -0.55000001
-0.44816789 1.1507154 -0.75
-0.54832709 1.0508747 -0.75
-0.74816757 1.1511931 -0.75
-0.64816767 1.1510339 -0.64999998
-0.44848642 0.95071554 -0.64999998
-0.44832715 1.0507154 -0.55000001
-0.54816782 1.1508746 -0.44999999
-0.54864562 0.85087496 -0.55000001
-0.44753084 1.5507149 -0.15000001
-0.54753077 1.5508741 -0.15000001
-0.4476901 1.4507149 -0.15000001
-0.54769003 1.4508742 -0.15000001
-0.74753052 1.5511926 -0.050000001
-0.64768988 1.4510335 -0.050000001
-0.74768978 1.4511927 -0.050000001
-0.5478493 1.3508743 -0.050000001
-0.54800856 1.2508745 -0.050000001
-0.24848668 0.95039701 -0.25
-0.048327655 1.0500784 -0.050000001
-0.14848681 0.95023775 -0.050000001
-0.74832684 1.0511932 -0.34999999
-0.6484862 0.95103407 -0.34999999
-0.7484861 0.95119333 -0.34999999
-0.64864546 0.85103422 -0.34999999
-0.7484861 0.95119333 -0.25
-0.54832709 1.0508747 -0.15000001
-0.54816782 1.1508746 -0.050000001
-0.74832684 1.0511932 -0.050000001
-0.7484861 0.95119333 -0.050000001
-0.84753042 1.5513519 -0.75
-0.84753042 1.5513519 -0.64999998
-1.0475302 1.5516704 -0.64999998
-0.9478488 1.3515114 -0.64999998
-1.2480078 1.2519894 -0.75
-1.2480078 1.2519894 -0.64999998
-0.84816748 1.1513524 -0.64999998
-1.248167 1.1519895 -0.64999998
-0.84753042 1.5513519 -0.050000001
-0.94753027 1.5515112 -0.050000001
-0.84768969 1.451352 -0.050000001
-0.94768953 1.4515113 -0.050000001
-1.0475302 1.5516704 -0.050000001
-1.1475301 1.5518297 -0.050000001
-1.0476894 1.4516705 -0.050000001
-0.84784895 1.3513521 -0.050000001
-0.9478488 1.3515114 -0.050000001
-0.84800822 1.2513523 -0.050000001
-0.94800806 1.2515116 -0.050000001
-1.1478486 1.3518299 -0.050000001
-1.048008 1.2516708 -0.050000001
-1.1480079 1.2518301 -0.050000001
-1.2476892 1.4519891 -0.050000001
-1.2478485 1.3519892 -0.050000001
-0.84832674 1.0513525 -0.34999999
-0.84816748 1.1513524 -0.25
-1.0481672 1.1516709 -0.25
-1.0483265 1.051671 -0.25
-0.84816748 1.1513524 -0.050000001
-0.94816732 1.1515117 -0.050000001
-0.84832674 1.0513525 -0.050000001
-0.94832659 1.0515118 -0.050000001
-0.84848601 0.9513526 -0.050000001
-0.94848585 0.95151186 -0.050000001
-0.24880521 0.75039726 -0.55000001
-0.24896447 0.65039736 -0.44999999
-0.048964716 0.65007883 -0.25
-0.14928313 0.45023835 -0.25
-0.048805453 0.75007874 -0.050000001
-0.14880534 0.750238 -0.050000001
-0.048964716 0.65007883 -0.050000001
-0.1489646 0.6502381 -0.050000001
-0.24880521 0.75039726 -0.050000001
-0.24896447 0.65039736 -0.050000001
-0.34896436 0.65055662 -0.050000001
-0.049283247 0.45007908 -0.050000001
-0.249283 0.45039761 -0.050000001
-0.34928289 0.45055687 -0.050000001
-0.74896389 0.65119368 -0.25
-0.54912341 0.55087531 -0.25
-0.44928277 0.45071614 -0.25
-0.64928252 0.45103467 -0.34999999
-0.44880497 0.75071579 -0.050000001
-0.44896424 0.65071589 -0.050000001
-0.54896414 0.65087515 -0.050000001
-0.64896399 0.65103441 -0.050000001
-0.4491235 0.55071604 -0.050000001
-0.44928277 0.45071614 -0.050000001
-0.54928267 0.4508754 -0.050000001
-0.64912325 0.55103457 -0.050000001
-0.1494424 0.35023847 -0.15000001
-0.14960167 0.2502386 -0.15000001
-0.049442511 0.35007921 -0.050000001
-0.1494424 0.35023847 -0.050000001
-0.14960167 0.2502386 -0.050000001
-0.24944228 0.35039774 -0.15000001
-0.24960154 0.25039786 -0.15000001
-0.24944228 0.35039774 -0.050000001
-0.24960154 0.25039786 -0.050000001
-0.34960142 0.25055712 -0.050000001
-0.54944193 0.35087553 -0.15000001
-0.5496012 0.25087565 -0.15000001
-0.44944203 0.35071626 -0.050000001
-0.54944193 0.35087553 -0.050000001
-0.84880453 0.75135285 -0.050000001
-0.8489638 0.65135294 -0.050000001
-1.7476885 1.4527854 -0.050000001
-1.8475292 1.5529445 -0.050000001
-1.9475291 1.5531038 -0.050000001
-1.9476883 1.4531039 -0.050000001
-1.647848 1.3526262 -0.050000001
-8.2416286 5.263133 -2.55
-7.9406734 5.8626542 -0.85000002
-7.0401969 6.161221 -0.25
-6.6409936 5.6605844 -0.34999999
-6.7409935 5.6607437 -0.34999999
-6.7408342 5.7607436 -0.25
-6.6409936 5.6605844 -0.25
-6.7409935 5.6607437 -0.25
-6.6409936 5.6605844 -0.15000001
-6.7409935 5.6607437 -0.15000001
-6.9406748 5.8610616 -0.34999999
-6.9406748 5.8610616 -0.25
-7.0406747 5.8612208 -0.34999999
-7.1405153 5.96138 -0.25
-6.8408341 5.7609029 -0.34999999
-6.8409934 5.660903 -0.34999999
-6.8408341 5.7609029 -0.25
-7.9401956 6.1626544 -0.75
-7.8403549 6.0624952 -0.75
-7.9403548 6.0626545 -0.75
-7.5408335 5.7620177 -0.75
-7.6405149 5.9621763 -0.75
-7.7405148 5.9623356 -0.75
-7.6406741 5.8621764 -0.75
-7.8405142 5.9624949 -0.75
-7.2398782 6.3615389 -0.25
-7.3398781 6.3616982 -0.15000001
-6.5411534 5.5604253 -0.44999999
-6.6411529 5.5605845 -0.44999999
-6.5411534 5.5604253 -0.15000001
-6.6411529 5.5605845 -0.15000001
-8.2398767 6.3631315 -0.85000002
-8.3398771 6.3632908 -0.85000002
-8.2403545 6.0631323 -0.85000002
-8.3403549 6.0632915 -0.85000002
-8.4398756 6.3634501 -0.85000002
-8.4400349 6.2634501 -0.85000002
-8.4401941 6.1634507 -0.85000002
-8.040514 5.9628134 -0.85000002
-8.1405134 5.9629726 -0.85000002
-8.2405138 5.9631319 -0.85000002
-8.0400362 6.2628131 -0.75
-8.1400356 6.2629724 -0.75
-8.3398771 6.3632908 -0.75
-8.240036 6.2631316 -0.75
-8.0401955 6.1628137 -0.75
-8.1403542 6.062973 -0.75
-8.2401953 6.1631322 -0.75
-8.3401957 6.1632915 -0.75
-8.2403545 6.0631323 -0.75
-8.4400349 6.2634501 -0.64999998
-8.4401941 6.1634507 -0.75
-8.040514 5.9628134 -0.75
8.463129 8.2365322 0.94999999
8.3629713 8.1366911 0.94999999
8.2629709 8.1368504 0.94999999
8.362812 8.0366917 0.94999999
8.2626524 7.936851 0.94999999
8.162652 7.9370103 0.94999999
8.1623335 7.737011 0.94999999
8.0623341 7.7371702 0.94999999
8.0621748 7.6371703 0.94999999
8.1623335 7.737011 1.05
0.066802427 10.549908 0.050000001
0.066802427 10.549908 0.15000001
0.066643164 10.449907 0.15000001
0.0664839 10.349908 0.050000001
0.16648379 10.349749 0.15000001
0.066324636 10.249907 0.15000001
0.066165373 10.149907 0.44999999
0.066961691 10.649907 0.94999999
0.16664305 10.449748 0.94999999
0.16648379 10.349749 0.85000002
0.16648379 10.349749 0.94999999
0.16632453 10.249748 0.94999999
0.066324636 10.249907 0.94999999
0.16616526 10.149748 0.85000002
0.066165373 10.149907 0.85000002
0.066006102 10.049908 0.85000002
0.066165373 10.149907 0.94999999
0.26584661 9.9495897 0.94999999
0.065846838 9.9499083 0.85000002
0.065687574 9.8499088 0.85000002
0.066643164 10.449907 1.75
0.16680232 10.549748 1.85
0.066643164 10.449907 1.85
0.16664305 10.449748 1.95
0.16664305 10.449748 2.05
0.2663244 10.249589 1.75
0.16648379 10.349749 1.75
0.0664839 10.349908 1.75
0.066324636 10.249907 1.75
0.16616526 10.149748 1.75
0.066165373 10.149907 1.75
0.16600598 10.049748 1.75
0.066006102 10.049908 1.75
0.2663244 10.249589 1.85
0.26648366 10.349589 1.95
0.0664839 10.349908 1.85
0.066324636 10.249907 1.85
0.26616514 10.149589 1.95
0.26600587 10.049589 1.95
0.066165373 10.149907 1.85
0.066006102 10.049908 1.85
0.16568746 9.8497496 1.75
0.16536893 9.6497488 1.75
0.26568735 9.8495903 1.95
0.16584672 9.949749 1.85
0.065846838 9.9499083 1.85
0.065687574 9.8499088 1.85
0.065846838 9.9499083 1.95
0.065687574 9.8499088 1.95
0.36552796 9.7494307 1.85
0.16552819 9.7497492 1.85
0.16536893 9.6497488 1.85
0.16552819 9.7497492 1.95
0.16616526 10.149748 2.05
0.066643164 10.449907 2.6500001
0.066165373 10.149907 2.55
0.066006102 10.049908 2.55
0.16632453 10.249748 2.6500001
0.066324636 10.249907 2.6500001
0.16600598 10.049748 2.6500001
0.066006102 10.049908 2.6500001
0.065687574 9.8499088 2.45
0.16584672 9.949749 2.55
0.16568746 9.8497496 2.55
0.16552819 9.7497492 2.55
0.065528311 9.7499084 2.55
0.16536893 9.6497488 2.55
0.06536904 9.6499081 2.55
0.065846838 9.9499083 2.6500001
0.16584672 9.949749 2.75
0.26552808 9.7495899 2.6500001
0.26536879 9.6495895 2.75
0.06536904 9.6499081 2.6500001
0.16552819 9.7497492 2.75
0.066165373 10.149907 2.8499999
0.063457862 8.4499092 0.44999999
0.16313921 8.2497511 0.44999999
0.063298598 8.3499107 1.05
0.16282068 8.0497513 1.05
0.46218324 7.6492743 1.05
0.36234263 7.7494335 1.05
0.36218336 7.6494336 1.05
0.56186461 7.4491148 1.05
0.46186471 7.4492741 1.05
0.56186461 7.4491148 1.15
0.66154593 7.2489562 1.05
0.66154593 7.2489562 1.15
0.56170535 7.3491154 1.05
0.56170535 7.3491154 1.15
0.56154609 7.2491155 1.15
0.36218336 7.6494336 1.25
0.46202397 7.5492744 1.25
0.56186461 7.4491148 1.25
0.46186471 7.4492741 1.25
0.3620241 7.5494337 1.25
0.86090869 6.8486381 1.05
0.86090869 6.8486381 1.15
0.96074927 6.7484789 1.05
0.86074942 6.7486382 1.05
0.96059 6.648479 1.05
1.0604306 6.5483203 1.05
0.66138667 7.1489563 1.05
0.76122731 7.0487971 1.05
0.66138667 7.1489563 1.15
0.76122731 7.0487971 1.15
0.76106805 6.9487972 1.05
0.76106805 6.9487972 1.15
0.16520967 9.5497494 1.65
0.26473173 9.2495899 1.75
0.26520953 9.5495901 1.95
0.36505014 9.4494305 1.95
0.16520967 9.5497494 1.85
0.1650504 9.449749 1.85
0.36489087 9.349431 1.85
0.26473173 9.2495899 1.85
0.36473161 9.2494307 1.95
0.16489114 9.3497496 1.85
0.16473186 9.2497492 1.85
0.46441296 9.0492725 1.85
0.46409443 8.8492727 1.85
0.26441321 9.0495911 1.85
0.36441308 9.0494318 1.95
0.26425394 8.9495907 1.85
0.26409468 8.8495913 1.85
0.26409468 8.8495913 2.3499999
0.4637759 8.649272 1.85
0.46361664 8.5492725 1.85
0.36393529 8.7494316 1.75
0.26282057 8.049592 1.75
0.16297995 8.1497507 1.75
0.26282057 8.049592 1.95
0.26393542 8.7495909 2.3499999
0.26377615 8.6495905 2.3499999
0.26361689 8.5495911 2.3499999
0.26505026 9.4495897 2.55
0.065209776 9.5499086 2.45
0.065050513 9.4499083 2.45
0.16520967 9.5497494 2.55
0.1650504 9.449749 2.55
0.16489114 9.3497496 2.45
0.16489114 9.3497496 2.55
0.064891249 9.3499088 2.55
0.26520953 9.5495901 2.6500001
0.26505026 9.4495897 2.6500001
0.065209776 9.5499086 2.6500001
0.1650504 9.449749 2.6500001
0.065050513 9.4499083 2.6500001
0.264891 9.3495903 2.6500001
0.16489114 9.3497496 2.6500001
0.064891249 9.3499088 2.6500001
0.26457247 9.1495905 2.45
0.26441321 9.0495911 2.45
0.36457235 9.1494312 2.55
0.26457247 9.1495905 2.55
0.36441308 9.0494318 2.55
0.26441321 9.0495911 2.55
0.1645726 9.1497498 2.45
0.16441333 9.0497503 2.45
0.1645726 9.1497498 2.55
0.16441333 9.0497503 2.55
0.36425382 8.9494314 2.45
0.26425394 8.9495907 2.45
0.36409456 8.849432 2.45
0.26409468 8.8495913 2.45
0.36425382 8.9494314 2.55
0.26425394 8.9495907 2.55
0.36409456 8.849432 2.55
0.16425407 8.9497499 2.45
0.16409481 8.8497505 2.45
0.16425407 8.9497499 2.55
0.36457235 9.1494312 2.6500001
0.4637759 8.649272 2.45
0.46361664 8.5492725 2.45
0.36393529 8.7494316 2.45
0.26393542 8.7495909 2.45
0.36377603 8.6494312 2.45
0.26377615 8.6495905 2.45
0.26393542 8.7495909 2.55
0.26361689 8.5495911 2.45
0.26345763 8.4495907 2.95
0.46218324 7.6492743 1.65
0.46218324 7.6492743 1.85
0.26266128 7.9495921 1.75
0.26250201 7.8495922 1.75
0.36234263 7.7494335 1.65
0.36218336 7.6494336 1.65
0.36250189 7.8494329 1.95
0.26250201 7.8495922 1.95
0.16266142 7.9497514 1.95
0.36234263 7.7494335 1.85
0.56202388 7.5491152 1.65
0.46202397 7.5492744 1.65
0.56186461 7.4491148 1.65
0.46202397 7.5492744 1.75
0.56186461 7.4491148 1.75
0.46186471 7.4492741 1.75
0.66154593 7.2489562 1.65
0.66154593 7.2489562 1.75
0.56170535 7.3491154 1.65
0.56170535 7.3491154 1.75
0.56154609 7.2491155 1.75
0.46202397 7.5492744 1.85
0.56186461 7.4491148 1.85
0.86106795 6.948638 1.65
0.86106795 6.948638 1.75
0.66138667 7.1489563 1.65
0.76122731 7.0487971 1.65
0.76138657 7.148797 1.75
10.45596 3.7333522 0.64999998
9.7553244 3.3344674 0.25
9.6551647 3.234627 0.25
9.7551651 3.2344677 0.34999999
9.6551647 3.234627 0.34999999
10.355802 3.6335118 0.64999998
10.255801 3.633671 0.64999998
10.055483 3.4339898 0.55000001
10.155642 3.5338302 0.64999998
10.055642 3.5339894 0.64999998
9.9554834 3.434149 0.55000001
9.6551647 3.234627 0.44999999
9.7551651 3.2344677 0.55000001
9.6551647 3.234627 0.55000001
9.9554834 3.434149 0.64999998
9.8553247 3.3343081 0.64999998
9.655324 3.3346267 0.64999998
9.7551651 3.2344677 0.64999998
9.6551647 3.234627 0.64999998
9.7553244 3.3344674 0.75
9.8556433 3.534308 3.1500001
9.7554836 3.4344676 3.05
9.6554832 3.4346268 3.05
9.7556429 3.5344672 3.1500001
9.0562811 3.9355817 0.34999999
9.0561218 3.8355818 0.34999999
8.9561214 3.835741 0.25
8.9559622 3.7357411 0.25
8.8559628 3.7359004 0.25
8.8558035 3.6359007 0.25
8.8559628 3.7359004 0.34999999
9.5553246 3.3347859 0.25
9.4553242 3.3349452 0.25
9.5551653 3.2347863 0.25
9.4551649 3.2349455 0.25
9.5553246 3.3347859 0.34999999
9.5551653 3.2347863 0.34999999
9.4551649 3.2349455 0.34999999
9.3553247 3.3351045 0.25
9.2553244 3.3352637 0.25
9.3551655 3.2351048 0.25
9.2551651 3.2352641 0.25
9.3553247 3.3351045 0.34999999
9.2553244 3.3352637 0.34999999
9.3551655 3.2351048 0.34999999
9.2551651 3.2352641 0.34999999
9.1551657 3.2354233 0.25
9.0551662 3.2355826 0.25
9.1553249 3.335423 0.34999999
9.1551657 3.2354233 0.34999999
9.0551662 3.2355826 0.34999999
8.9551659 3.2357419 0.25
8.8551664 3.2359011 0.25
8.9551659 3.2357419 0.34999999
8.8551664 3.2359011 0.34999999
9.5551653 3.2347863 0.44999999
9.4551649 3.2349455 0.44999999
9.5551653 3.2347863 0.55000001
9.4551649 3.2349455 0.55000001
9.3553247 3.3351045 0.44999999
9.2553244 3.3352637 0.44999999
9.3551655 3.2351048 0.44999999
9.2551651 3.2352641 0.44999999
9.3553247 3.3351045 0.55000001
9.2553244 3.3352637 0.55000001
9.3551655 3.2351048 0.55000001
9.2551651 3.2352641 0.55000001
9.4553242 3.3349452 0.64999998
9.5551653 3.2347863 0.64999998
9.4551649 3.2349455 0.64999998
9.5551653 3.2347863 0.75
9.4551649 3.2349455 0.75
9.3553247 3.3351045 0.64999998
9.3551655 3.2351048 0.64999998
9.2551651 3.2352641 0.64999998
9.3553247 3.3351045 0.75
9.3551655 3.2351048 0.75
9.2551651 3.2352641 0.75
9.1551657 3.2354233 0.44999999
9.0551662 3.2355826 0.44999999
9.1553249 3.335423 0.55000001
9.0553255 3.3355823 0.55000001
9.1551657 3.2354233 0.55000001
9.0551662 3.2355826 0.55000001
8.9551659 3.2357419 0.44999999
8.8551664 3.2359011 0.44999999
8.9551659 3.2357419 0.55000001
8.8551664 3.2359011 0.55000001
9.0553255 3.3355823 0.64999998
9.1551657 3.2354233 0.64999998
9.0551662 3.2355826 0.64999998
9.1551657 3.2354233 0.75
9.0551662 3.2355826 0.75
8.9551659 3.2357419 0.64999998
8.8551664 3.2359011 0.64999998
8.9551659 3.2357419 0.75
8.7558031 3.63606 0.25
8.7559624 3.7360597 0.34999999
8.7558031 3.63606 0.34999999
8.6556435 3.5362191 0.25
8.6556435 3.5362191 0.34999999
8.6554842 3.4362195 0.34999999
8.5554848 3.4363787 0.25
8.4554844 3.436538 0.25
8.5554848 3.4363787 0.34999999
8.7551661 3.2360604 0.34999999
8.5553255 3.3363786 0.25
8.4553251 3.3365378 0.25
8.4551659 3.2365382 0.25
8.5553255 3.3363786 0.34999999
8.4551659 3.2365382 0.34999999
8.3553267 3.3366971 0.34999999
8.3551674 3.2366974 0.34999999
8.255167 3.2368567 0.34999999
9.3551655 3.2351048 0.85000002
9.1551657 3.2354233 0.85000002
6.4554868 3.4397235 0.94999999
6.4551682 3.2397237 0.94999999
6.4554868 3.4397235 1.25
6.5554872 3.4395642 1.35
6.4554868 3.4397235 1.35
6.4553275 3.3397233 1.25
6.5553279 3.3395641 1.35
6.4553275 3.3397233 1.35
6.4551682 3.2397237 1.35
6.4554868 3.4397235 1.45
6.5554872 3.4395642 1.55
6.4554868 3.4397235 1.55
6.5553279 3.3395641 1.45
6.4553275 3.3397233 1.45
6.5551686 3.2395644 1.45
6.4551682 3.2397237 1.45
6.5553279 3.3395641 1.55
6.4553275 3.3397233 1.55
6.5551686 3.2395644 1.55
6.4551682 3.2397237 1.55
9.4551649 3.2349455 1.95
9.2551651 3.2352641 1.85
9.3551655 3.2351048 1.95
9.2551651 3.2352641 1.95
9.0551662 3.2355826 1.75
8.9551659 3.2357419 1.75
8.8551664 3.2359011 1.75
9.1551657 3.2354233 1.85
9.0551662 3.2355826 1.85
9.1553249 3.335423 1.95
9.0553255 3.3355823 1.95
9.1551657 3.2354233 1.95
9.0551662 3.2355826 1.95
8.9551659 3.2357419 1.85
8.8551664 3.2359011 1.85
8.9551659 3.2357419 1.95
8.8551664 3.2359011 1.95
9.4551649 3.2349455 2.05
9.4551649 3.2349455 2.1500001
9.3551655 3.2351048 2.05
9.2551651 3.2352641 2.05
9.2553244 3.3352637 2.1500001
9.3551655 3.2351048 2.1500001
9.2551651 3.2352641 2.1500001
9.4551649 3.2349455 2.25
9.4551649 3.2349455 2.3499999
9.3551655 3.2351048 2.25
9.2551651 3.2352641 2.25
9.3551655 3.2351048 2.3499999
9.2551651 3.2352641 2.3499999
9.1553249 3.335423 2.05
9.0553255 3.3355823 2.05
9.1551657 3.2354233 2.05
9.0551662 3.2355826 2.05
9.1553249 3.335423 2.1500001
9.0553255 3.3355823 2.1500001
9.1551657 3.2354233 2.1500001
9.0551662 3.2355826 2.1500001
8.9553251 3.3357415 2.05
8.9551659 3.2357419 2.05
8.8551664 3.2359011 2.05
8.9551659 3.2357419 2.1500001
8.8551664 3.2359011 2.1500001
9.1553249 3.335423 2.25
9.0553255 3.3355823 2.25
9.1551657 3.2354233 2.25
9.0551662 3.2355826 2.25
9.1553249 3.335423 2.3499999
9.0553255 3.3355823 2.3499999
9.1551657 3.2354233 2.3499999
9.0551662 3.2355826 2.3499999
8.9553251 3.3357415 2.25
8.9551659 3.2357419 2.25
8.8551664 3.2359011 2.25
8.9551659 3.2357419 2.3499999
8.8551664 3.2359011 2.3499999
8.7551661 3.2360604 1.85
8.7551661 3.2360604 1.95
8.7551661 3.2360604 2.05
8.7551661 3.2360604 2.25
9.4551649 3.2349455 2.45
9.5551653 3.2347863 2.55
9.4551649 3.2349455 2.55
9.3553247 3.3351045 2.45
9.3551655 3.2351048 2.45
9.2551651 3.2352641 2.45
9.3553247 3.3351045 2.55
9.2553244 3.3352637 2.55
9.3551655 3.2351048 2.55
9.2551651 3.2352641 2.55
9.4551649 3.2349455 2.6500001
9.4551649 3.2349455 2.75
9.3553247 3.3351045 2.6500001
9.3551655 3.2351048 2.6500001
9.2551651 3.2352641 2.6500001
9.3551655 3.2351048 2.75
9.2551651 3.2352641 2.75
9.0554848 3.4355824 2.45
9.0553255 3.3355823 2.45
9.1551657 3.2354233 2.45
9.0551662 3.2355826 2.45
9.1551657 3.2354233 2.55
9.0551662 3.2355826 2.55
8.9553251 3.3357415 2.45
8.9551659 3.2357419 2.45
8.8551664 3.2359011 2.45
8.9551659 3.2357419 2.55
8.8551664 3.2359011 2.55
9.1551657 3.2354233 2.6500001
9.0551662 3.2355826 2.6500001
9.1551657 3.2354233 2.75
9.0551662 3.2355826 2.75
8.9551659 3.2357419 2.6500001
8.8551664 3.2359011 2.6500001
8.9551659 3.2357419 2.75
8.8551664 3.2359011 2.75
9.4551649 3.2349455 2.8499999
9.5553246 3.3347859 2.95
9.4553242 3.3349452 2.95
9.4551649 3.2349455 2.95
9.3551655 3.2351048 2.8499999
9.2551651 3.2352641 2.8499999
9.3553247 3.3351045 2.95
9.2553244 3.3352637 2.95
9.3551655 3.2351048 2.95
9.2551651 3.2352641 2.95
9.4554834 3.4349453 3.05
9.5553246 3.3347859 3.05
9.4553242 3.3349452 3.05
9.1551657 3.2354233 2.8499999
9.0551662 3.2355826 2.8499999
9.1551657 3.2354233 2.95
8.9551659 3.2357419 2.8499999
8.8551664 3.2359011 2.8499999
8.7551661 3.2360604 2.45
8.7551661 3.2360604 2.55
8.1554852 3.4370158 2.75
8.0554857 3.437175 2.75
8.0551672 3.2371752 2.6500001
8.1553259 3.3370156 2.75
